ncols         271
nrows         32
xllcorner     3697109.8336
yllcorner     1061353.9668
cellsize      3.5
NODATA_value  -9999
9999.00000 9999.00000 9999.00000 9999.00000 9999.00000 9999.00000 9999.00000 9999.00000 9999.00000 9999.00000 9999.00000 9999.00000 9999.00000 9999.00000 9999.00000 9999.00000 9999.00000 9999.00000 9999.00000 9999.00000 9999.00000 9999.00000 9999.00000 9999.00000 9999.00000 9999.00000 9999.00000 9817.43300 7236.78660 3588.52640 444.833280 3.16555000 3.15815000 3.16386000 3.19944000 3.24522000 3.27812000 3.25431000 3.28594000 3.26641000 3.22423000 3.15492000 3.10235000 3.09194000 3.08978000 3.05499000 3.03166000 3.02071000 2.96610000 2.84720000 2.80579000 2.80544000 2.81198000 2.82169000 2.82423000 2.81383000 2.79052000 2.74779000 2.77523000 2.81369000 2.80928000 2.71820000 2.75748000 2.85586000 2.95777000 3.07435000 3.04566000 3.08207000 3.09338000 3.09114000 2.96316000 2.98204000 68.8868000 80.0000000 80.0000000 38.2318000 2.98438000 2.92472000 2.97054000 2.99014000 2.99516000 2.99829000 2.98151000 2.96348000 2.91370000 2.85300000 2.74957000 2.65141000 2.74281000 2.78786000 2.71494000 2.71825000 2.92237000 2.98978000 3.06276000 3.06430000 14.8904300 65.6866800 80.0000000 80.0000000 80.0000000 80.0000000 80.0000000 79.1024200 15.4313500 3.19014000 3.19410000 3.20417000 3.19308000 30.3229400 79.3695400 14.9120000 3.17803000 3.18775000 3.13407000 3.07922000 3.02746000 2.97396000 2.83926000 2.60083000 2.63988000 2.68882000 2.69659000 2.64197000 2.60246000 2.90547000 2.97686000 2.95623000 2.90888000 2.88294000 2.87920000 2.88682000 2.90054000 2.93587000 2.94779000 2.93924000 2.93431000 2.92238000 2.87749000 2.88452000 2.86477000 2.83903000 2.86033000 2.89379000 2.86026000 2.94088000 16.9849800 45.2927200 67.3968500 78.5443600 79.2918800 17.0801400 2.82325000 2.57133000 2.56361000 2.56268000 2.48352000 2.52419000 2.97036000 15.8585900 79.6486000 80.0000000 80.0000000 80.0000000 80.0000000 80.0000000 80.0000000 80.0000000 80.0000000 80.0000000 80.0000000 80.0000000 80.0000000 80.0000000 80.0000000 80.0000000 80.0000000 80.0000000 80.0000000 79.2064800 15.8280500 3.05732000 2.98619000 2.95094000 2.94798000 2.94174000 2.91550000 2.88894000 2.87074000 2.85062000 2.84167000 2.90171000 3.08359000 3.07324000 2.97762000 2.96788000 2.98636000 2.99975000 3.02187000 3.05963000 3.11096000 3.13974000 6.65271000 23.6646700 27.2817400 17.9189400 3.32891000 3.05751000 2.97513000 2.98792000 3.08707000 2.91381000 2.93505000 2.95781000 3.07797000 3.19474000 3.15200000 3.09612000 3.10234000 3.09831000 3.06671000 3.04940000 3.04167000 3.04371000 3.02862000 3.04789000 3.05987000 3.08915000 3.09587000 3.13545000 3.14387000 3.16678000 3.18199000 3.21428000 3.21313000 3.21974000 3.22498000 3.20994000 3.22165000 3.21782000 3.21894000 3.20432000 3.17697000 3.18122000 3.21568000 3.23095000 3.20321000 3.23700000 3.25750000 3.25756000 3.20100000 3.24588000 3.33442000 3.35023000 3.27091000 3.15237000 3.12130000 3.00900000 3.08583000 3.17337000 3.38743000 3.31301000 3.40628000 3.44752000 3.49531000 3.64844000 3.37955000 3.35730000 3.37688000 3.43424000 3.40623000
9999.00000 9999.00000 9999.00000 9999.00000 9999.00000 9999.00000 9999.00000 9999.00000 9999.00000 9999.00000 9999.00000 9999.00000 9999.00000 9999.00000 9999.00000 9999.00000 9999.00000 9999.00000 9999.00000 9999.00000 9999.00000 9999.00000 9999.00000 9999.00000 9999.00000 9999.00000 9999.00000 9999.00000 9999.00000 9999.00000 9285.18600 2847.32800 3.17944000 3.21781000 3.22137000 3.24939000 3.25582000 3.26681000 3.29904000 3.30349000 3.30081000 3.25577000 3.19271000 3.13710000 3.09800000 3.07086000 3.07028000 3.06424000 3.07772000 3.02453000 3.00941000 2.94965000 2.89218000 2.84373000 2.81840000 2.80189000 2.82312000 2.83521000 2.84605000 2.81814000 2.79618000 2.74441000 2.73029000 2.78454000 2.80034000 2.84755000 2.89195000 2.94287000 2.95332000 3.05174000 2.90115000 10.9774700 69.1807000 76.6488800 79.4106900 18.3043200 2.97114000 2.96452000 2.97359000 2.99243000 3.06847000 3.10031000 2.99262000 2.95746000 2.91234000 2.83960000 2.71731000 2.63277000 2.74473000 2.74869000 2.66609000 2.76756000 2.89823000 3.03660000 3.12039000 3.13860000 3.13464000 3.70557000 11.3170800 35.7941300 65.4479400 79.4975300 80.0000000 66.9038700 3.32017000 3.23880000 3.14731000 3.23310000 3.23694000 61.1046000 65.6605400 3.20573000 3.22480000 3.19940000 3.15441000 3.09087000 3.01210000 2.94363000 2.72264000 2.56026000 2.65142000 2.69403000 2.65836000 2.60911000 2.66328000 3.14253000 3.17939000 3.17658000 3.12972000 3.05177000 3.02376000 2.99829000 2.95206000 2.93709000 2.90553000 2.90302000 2.92019000 2.93536000 2.92643000 2.91926000 2.89584000 2.80577000 2.76732000 2.75281000 2.81651000 2.81042000 2.81794000 2.78328000 2.80396000 29.3378100 58.5104800 2.71644000 2.75094000 2.49646000 2.56259000 2.51283000 2.44753000 2.71353000 3.05144000 37.0763300 80.0000000 80.0000000 80.0000000 80.0000000 80.0000000 80.0000000 80.0000000 80.0000000 80.0000000 80.0000000 80.0000000 80.0000000 80.0000000 80.0000000 80.0000000 80.0000000 80.0000000 80.0000000 80.0000000 67.5109700 3.07657000 3.04832000 2.98838000 2.97052000 2.95776000 2.94367000 2.92200000 2.89356000 2.87255000 2.83806000 2.82281000 2.87762000 3.08275000 3.05902000 2.98359000 2.97080000 2.97574000 2.98705000 3.01611000 3.04269000 3.07434000 3.10658000 3.10525000 3.11342000 3.09218000 3.07053000 3.03351000 2.99120000 2.99360000 2.97176000 2.91929000 2.91310000 2.92092000 2.92601000 2.93937000 2.95635000 2.96179000 2.92831000 2.96222000 2.99723000 3.03216000 3.04695000 3.06392000 3.08134000 3.09738000 3.12234000 3.12660000 3.15538000 3.14612000 3.15387000 3.15292000 3.15724000 3.15010000 3.14340000 3.11768000 3.10781000 3.12818000 3.18851000 3.17598000 3.19758000 3.23220000 3.22151000 3.25226000 3.28866000 3.39537000 3.39997000 3.49680000 3.48022000 3.41568000 3.38764000 3.37922000 3.39669000 3.42102000 3.42874000 3.38053000 3.24882000 3.16422000 3.04287000 3.07496000 3.15869000 3.41545000 3.30562000 3.38393000 3.42597000 3.45836000 3.61507000 3.45978000 3.33796000 3.35310000 3.41547000 3.42015000
9999.00000 9999.00000 9999.00000 9999.00000 9999.00000 9999.00000 9999.00000 9999.00000 9999.00000 9999.00000 9999.00000 9999.00000 9999.00000 9999.00000 9999.00000 9999.00000 9999.00000 9999.00000 9999.00000 9999.00000 9999.00000 9999.00000 9999.00000 9999.00000 9999.00000 9999.00000 9999.00000 9999.00000 9999.00000 9999.00000 8920.04100 735.913150 3.21139000 3.24328000 3.28940000 3.26837000 3.23685000 3.24046000 3.24315000 3.24986000 3.25408000 3.29451000 3.24913000 3.18489000 3.15700000 3.12744000 3.09560000 3.07023000 3.06218000 3.05473000 3.04239000 3.02820000 3.03118000 3.02851000 2.94132000 2.87268000 2.80714000 2.78892000 2.80613000 2.82872000 2.84259000 2.82606000 2.81862000 2.79035000 2.75815000 2.75909000 2.74100000 2.76065000 2.74770000 2.81550000 2.80149000 3.03608000 3.22850000 10.1331200 13.3913400 3.05682000 3.00310000 2.97662000 2.98991000 3.00463000 3.10394000 3.25678000 3.17891000 2.99064000 2.89792000 2.76755000 2.65157000 2.64396000 2.75703000 2.70661000 2.64786000 2.77529000 2.85750000 2.97879000 3.14092000 3.12501000 3.16976000 3.22051000 3.24986000 3.23020000 3.18216000 16.7396200 36.5117500 32.0669900 3.35825000 16.2604100 28.8797900 7.73420000 9.01742000 72.2301200 58.4556400 3.21572000 3.22267000 3.19065000 3.11827000 3.06132000 2.99279000 2.89895000 2.59403000 2.58347000 2.65812000 2.68434000 2.62028000 2.54859000 2.85522000 3.17638000 3.17938000 3.18294000 3.18409000 3.16263000 3.16568000 3.15736000 3.10889000 3.10974000 3.07071000 3.01590000 2.94315000 2.93252000 2.88172000 2.87449000 2.90371000 2.85833000 2.77958000 2.74977000 2.77210000 2.75930000 2.70384000 2.64876000 2.67337000 2.74715000 2.71310000 2.72680000 2.61445000 2.47680000 2.55043000 2.47298000 2.47349000 2.90495000 3.06120000 61.9963600 80.0000000 80.0000000 80.0000000 80.0000000 80.0000000 80.0000000 80.0000000 80.0000000 80.0000000 80.0000000 80.0000000 80.0000000 80.0000000 80.0000000 80.0000000 80.0000000 80.0000000 80.0000000 80.0000000 36.3371600 3.08472000 3.03458000 2.97749000 2.97453000 2.95473000 2.94185000 2.93079000 2.91007000 2.86706000 2.81532000 2.79114000 2.82352000 3.01719000 3.05298000 3.00139000 2.96488000 2.88408000 2.89288000 2.93596000 3.00691000 3.00527000 3.00232000 3.00644000 2.97954000 2.91907000 2.87478000 2.88938000 2.88580000 2.89904000 2.90686000 2.92348000 2.93032000 2.97168000 2.98591000 2.99448000 3.01823000 3.04470000 3.05767000 3.07230000 3.08564000 3.09475000 3.09283000 3.10314000 3.08961000 3.07805000 3.06577000 3.05797000 3.06631000 3.06305000 3.08172000 3.13858000 3.15472000 3.08142000 3.09314000 3.11853000 3.12594000 3.23109000 3.31095000 3.27979000 3.29889000 3.31883000 3.34214000 3.38526000 3.41510000 3.43486000 3.40878000 3.52471000 3.52779000 3.47117000 3.44996000 3.46131000 3.46602000 3.45756000 3.45938000 3.40695000 3.25539000 3.10566000 3.05835000 3.06443000 3.13584000 3.40525000 3.30288000 3.36179000 3.39998000 3.48668000 3.59807000 3.55648000 3.42414000 3.44359000 3.47252000 3.49742000
9999.00000 9999.00000 9999.00000 9999.00000 9999.00000 9999.00000 9999.00000 9999.00000 9999.00000 9999.00000 9999.00000 9999.00000 9999.00000 9999.00000 9999.00000 9999.00000 9999.00000 9999.00000 9999.00000 9999.00000 9999.00000 9999.00000 9999.00000 9999.00000 9999.00000 9999.00000 9999.00000 9975.61900 6795.10250 2465.01070 509.931300 3.26532000 3.25635000 3.25640000 3.29367000 3.25056000 3.23572000 3.24256000 3.23664000 3.24405000 3.23798000 3.23197000 3.25188000 3.24933000 3.21667000 3.15998000 3.11894000 3.10108000 3.07653000 3.06138000 3.04991000 3.03394000 3.01071000 2.98652000 2.92983000 2.91030000 2.91887000 2.88954000 2.82911000 2.77243000 2.76705000 2.78456000 2.80753000 2.82204000 2.82514000 2.80007000 2.73888000 2.67972000 2.67838000 2.66066000 2.67041000 2.73949000 2.77502000 2.87919000 3.05226000 3.10463000 3.07858000 3.01148000 2.92792000 2.98429000 2.97931000 2.99821000 3.00503000 2.96146000 2.89384000 2.76043000 2.65963000 2.66481000 2.74199000 2.64638000 2.68202000 2.77839000 2.83580000 8.10853000 26.4329700 5.48043000 3.46047000 3.24240000 3.25088000 3.27989000 3.21429000 3.16337000 3.13172000 3.18288000 3.28897000 53.0464200 80.0000000 74.0322200 74.6976000 80.0000000 42.1352400 3.19393000 3.21596000 3.17364000 3.10982000 3.05029000 2.96910000 2.83687000 2.54281000 2.59972000 2.67087000 2.64615000 2.57478000 2.54721000 2.99402000 3.18400000 3.17276000 3.16532000 3.16465000 3.16309000 3.18703000 3.19729000 3.15305000 3.13812000 3.14670000 3.13140000 3.14407000 3.10594000 3.03358000 2.92494000 2.82387000 2.80008000 2.76205000 2.76882000 2.83628000 2.82360000 2.77119000 2.71288000 2.63800000 2.58699000 2.55727000 2.52578000 2.42939000 2.46770000 2.48639000 2.39059000 2.59702000 3.00421000 3.00457000 21.8586500 50.6502300 48.9494400 17.4887000 17.4527700 32.2308700 65.3045000 79.7905200 80.0000000 80.0000000 80.0000000 80.0000000 80.0000000 80.0000000 80.0000000 80.0000000 80.0000000 80.0000000 80.0000000 77.5865800 11.3992500 3.08453000 3.09787000 3.07266000 3.03962000 3.09310000 3.14067000 3.10843000 3.06272000 3.03614000 2.85133000 2.72596000 2.77454000 3.01229000 3.03095000 2.99015000 2.96557000 2.77104000 2.76362000 2.80448000 2.90024000 2.91667000 2.87832000 2.84328000 2.84213000 2.84752000 2.86761000 2.90333000 2.92103000 2.94841000 2.96497000 2.98278000 2.97834000 3.01255000 3.01197000 3.02891000 3.03029000 3.03954000 3.02102000 3.01045000 3.00011000 2.98336000 3.00456000 3.02255000 3.02027000 2.97795000 3.03688000 3.09798000 3.12473000 3.15200000 3.28319000 3.34184000 3.28575000 3.17442000 3.12881000 3.16716000 3.15645000 3.27866000 3.35069000 3.35926000 3.38282000 3.40371000 3.43734000 3.48945000 3.52416000 3.46322000 3.45112000 3.58394000 3.56932000 3.53099000 3.53759000 3.49690000 3.51465000 3.52886000 3.47184000 3.43411000 3.28721000 3.15962000 3.05494000 3.04032000 3.10395000 3.36514000 3.29322000 3.33997000 3.38396000 3.44460000 3.58157000 3.59589000 3.51673000 3.50368000 3.53392000 3.53622000
9999.00000 9999.00000 9999.00000 9999.00000 9999.00000 9999.00000 9999.00000 9999.00000 9999.00000 9999.00000 9999.00000 9999.00000 9999.00000 9999.00000 9999.00000 9999.00000 9999.00000 9999.00000 9999.00000 9999.00000 9999.00000 9999.00000 9999.00000 9999.00000 9999.00000 9999.00000 9999.00000 5227.98240 3.25601000 3.26272000 3.25400000 3.25622000 3.27080000 3.31762000 3.28816000 3.25377000 3.25498000 3.25594000 3.25166000 3.24687000 3.23990000 3.23588000 3.22568000 3.24131000 3.22322000 3.17806000 3.12802000 3.11628000 3.10174000 3.07257000 3.07333000 3.07584000 3.03848000 2.96867000 2.90432000 2.90760000 2.90973000 2.96803000 3.00334000 2.93903000 2.88657000 2.81292000 2.73629000 2.69634000 2.74463000 2.76404000 2.76805000 2.77367000 2.74734000 2.70229000 2.66297000 2.65420000 2.67507000 2.71079000 2.74280000 2.75620000 2.89599000 2.91969000 3.01240000 3.02709000 2.97871000 2.96713000 2.94748000 2.93853000 2.80563000 2.68492000 2.63406000 2.71086000 2.72414000 2.61631000 2.71848000 2.78649000 2.79932000 2.81570000 24.9341600 60.0756200 54.6519400 23.3960200 3.16831000 3.03326000 3.17938000 3.19710000 3.13921000 3.19344000 3.73000000 66.4340400 80.0000000 80.0000000 80.0000000 80.0000000 38.4132100 3.24408000 3.20469000 3.15191000 3.10373000 3.02126000 2.95116000 2.77283000 2.48635000 2.60514000 2.66305000 2.61745000 2.55449000 2.57946000 3.12351000 3.16268000 3.15094000 3.15066000 3.14759000 3.18451000 3.19367000 3.17454000 3.15602000 3.13095000 3.12210000 3.14138000 3.17168000 3.15419000 3.09327000 2.96235000 2.80220000 2.70463000 2.66661000 2.67012000 2.69695000 2.73188000 2.74777000 2.71779000 2.69569000 2.64615000 2.58288000 2.50900000 2.46613000 2.47298000 2.44006000 2.35805000 2.55976000 2.88729000 3.04538000 3.06877000 3.00779000 3.04738000 3.06970000 3.10241000 3.10012000 3.08773000 72.8218700 80.0000000 80.0000000 80.0000000 80.0000000 80.0000000 80.0000000 80.0000000 80.0000000 80.0000000 61.4529700 61.0865000 33.7929900 2.98872000 3.03114000 3.00406000 3.11294000 3.11842000 3.09204000 3.05551000 3.01884000 2.95981000 2.89436000 2.76766000 2.66296000 2.68646000 2.82566000 2.79842000 2.78150000 2.77807000 2.75422000 2.78030000 2.80467000 2.83878000 2.84888000 2.87271000 2.88465000 2.91238000 2.92660000 2.92490000 2.93006000 2.93516000 2.94338000 2.93480000 2.94092000 2.90563000 2.91783000 2.90709000 2.91916000 2.94367000 2.96599000 2.96891000 3.00922000 2.93994000 2.88018000 3.04079000 3.04617000 21.2860700 29.8985500 42.0549200 53.5322300 62.1677600 33.8899600 3.34103000 3.35359000 3.30336000 3.19444000 3.13505000 3.17606000 3.16034000 3.29838000 3.37279000 3.40488000 3.42907000 3.41765000 6.42808000 22.2953900 39.3462000 41.2872900 3.44448000 3.50924000 3.49141000 3.54324000 3.53711000 4.20537000 38.4418000 3.53673000 3.49356000 3.45537000 3.30754000 3.10620000 2.95395000 3.01910000 3.07237000 3.30380000 3.27855000 3.33414000 3.38018000 3.43430000 3.58642000 3.58759000 3.50521000 3.48415000 3.47753000 3.48815000
9999.00000 9999.00000 9999.00000 9999.00000 9999.00000 9999.00000 9999.00000 9999.00000 9999.00000 9999.00000 9999.00000 9999.00000 9999.00000 9999.00000 9999.00000 9999.00000 9999.00000 9999.00000 9999.00000 9999.00000 9999.00000 9999.00000 9999.00000 9999.00000 9999.00000 9999.00000 5149.75630 24.4313400 3.28497000 3.27333000 3.27861000 3.24478000 3.24542000 3.32526000 3.27060000 3.25681000 3.25589000 3.26369000 3.25704000 3.25559000 3.24540000 3.24342000 3.23974000 3.22565000 3.21400000 3.17856000 3.12531000 3.12890000 3.11628000 3.08613000 3.07199000 3.07777000 3.06383000 3.01018000 2.93863000 2.89060000 2.88911000 2.93098000 2.92243000 2.87917000 2.84402000 2.93423000 2.89935000 2.86596000 2.80632000 2.72870000 2.66095000 2.66867000 2.70574000 2.72938000 2.72535000 2.73326000 2.70332000 2.66649000 2.64661000 2.64535000 2.62802000 2.67655000 2.72744000 2.91710000 2.86930000 2.89726000 2.87958000 2.90793000 2.77277000 2.64954000 2.64013000 2.75061000 2.69034000 2.58469000 2.70246000 2.78141000 2.80170000 2.79840000 2.77646000 2.79395000 3.55519000 31.8252200 6.46032000 2.84647000 3.04115000 3.18164000 3.17296000 3.21176000 14.4957200 80.0000000 80.0000000 80.0000000 80.0000000 80.0000000 29.1557400 3.23905000 3.19073000 3.13368000 3.07287000 2.98795000 2.91318000 2.61886000 2.46350000 2.60448000 2.64077000 2.58934000 2.48948000 2.75573000 3.18149000 3.15739000 3.13537000 3.14224000 3.15743000 3.17623000 3.17636000 3.15670000 3.15960000 3.13608000 3.13548000 3.14900000 3.16619000 18.8370400 75.8913200 56.6970000 28.2657000 11.0313200 2.62813000 2.62220000 2.61463000 2.63396000 2.67897000 2.64307000 2.61086000 2.60396000 2.58472000 2.53451000 2.50089000 2.46485000 2.42801000 2.38447000 2.35256000 2.47307000 2.64299000 2.78196000 2.91084000 2.94097000 2.93721000 3.01316000 3.05721000 3.07081000 35.3193700 56.4994000 64.5297300 64.5243600 55.1480300 44.4275300 31.5930200 24.2484400 7.99598000 4.21046000 3.06836000 3.00418000 2.98636000 2.92624000 2.84091000 2.82142000 2.81299000 2.78158000 2.76712000 2.74571000 2.70518000 2.69744000 2.69041000 2.68112000 2.69638000 2.73737000 2.76921000 2.79207000 2.82449000 2.82980000 2.84005000 2.86496000 2.86929000 2.86741000 2.86317000 2.87339000 2.87851000 2.86113000 2.84905000 2.83599000 2.85064000 2.87341000 2.88455000 2.89381000 2.94851000 2.89371000 2.88598000 2.90955000 2.95646000 3.29233000 18.4871200 27.5437800 38.6018100 51.0869400 75.5546800 78.8060000 78.8063900 79.9589200 80.0000000 80.0000000 80.0000000 80.0000000 43.1447900 3.32954000 3.27197000 3.25847000 3.21156000 3.13175000 3.18248000 3.18738000 3.28059000 3.37923000 48.6171600 63.7902000 78.8118600 79.0016000 80.0000000 80.0000000 78.4713000 7.09551000 3.48701000 3.45696000 3.52232000 3.53146000 4.88692000 70.3867000 4.51996000 3.50152000 3.46252000 3.29159000 3.06661000 2.93576000 2.99807000 3.05465000 3.27535000 3.26287000 3.32493000 3.36977000 3.41987000 3.51052000 3.56888000 3.48116000 3.46208000 3.46700000 3.47681000
9999.00000 9999.00000 9999.00000 9999.00000 9999.00000 9999.00000 9999.00000 9999.00000 9999.00000 9999.00000 9999.00000 9999.00000 9999.00000 9999.00000 9999.00000 9999.00000 9999.00000 9999.00000 9999.00000 9999.00000 9999.00000 9999.00000 9999.00000 9999.00000 9999.00000 8847.65500 297.170320 3.34184000 3.31619000 3.30597000 3.29651000 3.25758000 3.22488000 3.29358000 3.26132000 3.24140000 3.25648000 3.26071000 3.26395000 3.25282000 3.23734000 3.23869000 3.22880000 3.20513000 3.18331000 3.14999000 3.10481000 3.10170000 3.04788000 3.04193000 3.05056000 3.04825000 3.02178000 2.99606000 2.92537000 2.90327000 2.91127000 2.93224000 2.93861000 2.86725000 2.89164000 2.89956000 2.89896000 2.89789000 2.93852000 2.85115000 2.81617000 2.78289000 2.72206000 2.63330000 2.59737000 2.67773000 2.67859000 2.72441000 2.73058000 2.67296000 2.61960000 2.60978000 2.59703000 2.63818000 2.69945000 2.71707000 2.68198000 2.72613000 2.69447000 2.65193000 2.65995000 2.73746000 2.64840000 2.64306000 2.79931000 2.81206000 2.79905000 2.79617000 2.79458000 2.78287000 2.79555000 2.80258000 2.79572000 2.86285000 3.02055000 3.15074000 3.18893000 3.18840000 10.2873800 48.1118700 79.7850600 80.0000000 80.0000000 72.2402000 4.13696000 3.22388000 3.18748000 3.10686000 3.05513000 2.98579000 2.86974000 2.50073000 2.51705000 2.61811000 2.61554000 2.52906000 2.46209000 2.88364000 3.15273000 3.14573000 3.13455000 3.12763000 3.14976000 3.17322000 3.18009000 3.16063000 3.15132000 3.15408000 3.15771000 3.15729000 3.15362000 45.7541400 80.0000000 80.0000000 80.0000000 77.8606700 61.6789000 34.9076000 14.6954000 4.93654000 2.64781000 2.62550000 2.60211000 2.51641000 2.48512000 2.48089000 2.48621000 2.45157000 2.46618000 2.45169000 2.44848000 2.42905000 2.41436000 2.44378000 2.49816000 2.55402000 2.62020000 2.72155000 2.80190000 2.90608000 2.97640000 2.99528000 2.99867000 2.97257000 2.94865000 2.97819000 2.96512000 2.88621000 2.85363000 2.79698000 2.77523000 2.73046000 2.69847000 2.67401000 2.64804000 2.64941000 2.66767000 2.67683000 2.69806000 2.71478000 2.72875000 2.74262000 2.76042000 2.77914000 2.78966000 2.81116000 2.82278000 2.82354000 2.82667000 2.81344000 2.81071000 2.78847000 2.80005000 2.79402000 2.80073000 2.76206000 2.76789000 2.87948000 2.90414000 2.84190000 2.98367000 3.04221000 3.00928000 3.00461000 3.05699000 3.08449000 2.97359000 2.98992000 2.97424000 14.9158400 80.0000000 80.0000000 80.0000000 80.0000000 80.0000000 80.0000000 80.0000000 80.0000000 80.0000000 80.0000000 80.0000000 80.0000000 56.7307800 3.27639000 3.27083000 3.25292000 3.21423000 3.14093000 3.18913000 3.20201000 3.26266000 3.39999000 47.1117400 80.0000000 80.0000000 80.0000000 80.0000000 80.0000000 80.0000000 21.5206200 3.49130000 3.53204000 3.54053000 3.54700000 4.34130000 72.2270600 8.74009000 3.50147000 3.46924000 3.29285000 3.11294000 2.98571000 2.99432000 3.03612000 3.25241000 3.23759000 3.31750000 3.36659000 3.41171000 3.50198000 3.54137000 3.47436000 3.47490000 3.47072000 3.45635000
9999.00000 9999.00000 9999.00000 9999.00000 9999.00000 9999.00000 9999.00000 9999.00000 9999.00000 9999.00000 9999.00000 9999.00000 9999.00000 9999.00000 9999.00000 9999.00000 9999.00000 9999.00000 9999.00000 9999.00000 9999.00000 9999.00000 9999.00000 9999.00000 9999.00000 5965.42700 3.31127000 3.28908000 3.27803000 3.26675000 3.25886000 3.25294000 3.24855000 3.26782000 3.25146000 3.24211000 3.24815000 3.23454000 3.24451000 3.23938000 3.24110000 3.23886000 3.22091000 3.20626000 3.14532000 3.09921000 3.07869000 3.07777000 3.03724000 3.00906000 3.00849000 3.00783000 2.94826000 2.90631000 2.85652000 2.85569000 2.89549000 2.92225000 2.93698000 2.91146000 2.91466000 2.93688000 2.93196000 2.89709000 2.89986000 2.89444000 2.89413000 2.93195000 2.87181000 2.82100000 2.76875000 2.69721000 2.56515000 2.59895000 2.66326000 2.66506000 2.68316000 2.69336000 2.63596000 2.59790000 2.61955000 2.57898000 2.61452000 2.68506000 2.68023000 2.61657000 2.70271000 2.71241000 2.60301000 2.72003000 3.99972000 10.7635400 2.88563000 2.88275000 2.83734000 2.84038000 2.79204000 2.81168000 2.83210000 2.94952000 3.09689000 3.14005000 3.16445000 3.16951000 3.16861000 3.23754000 68.9095800 80.0000000 79.0669400 23.0688400 3.24934000 3.21613000 3.17492000 3.10035000 3.03679000 2.96008000 2.77189000 2.44557000 2.56150000 2.62950000 2.57654000 2.47880000 2.52308000 3.11855000 3.13915000 3.15632000 3.14235000 3.13629000 3.14230000 3.16344000 3.16534000 3.16100000 3.14290000 3.15179000 3.15787000 3.16934000 3.15351000 70.1770800 80.0000000 80.0000000 80.0000000 80.0000000 80.0000000 80.0000000 80.0000000 67.8156600 41.6349100 22.2782100 3.16652000 2.49569000 2.40775000 2.38155000 2.37348000 2.35389000 2.39283000 2.42718000 2.47166000 2.49127000 2.49216000 2.48630000 2.46711000 2.43697000 2.42002000 2.45282000 2.50229000 2.57135000 2.65331000 2.72664000 2.74525000 2.67875000 2.63027000 2.60782000 2.59273000 2.58655000 2.58203000 2.60884000 2.62751000 2.65090000 2.66768000 2.67324000 2.70305000 2.70555000 2.73338000 2.74453000 2.75715000 2.76805000 2.76410000 2.76176000 2.75859000 2.76098000 2.73376000 2.73023000 2.72762000 2.74350000 2.75494000 2.80486000 2.83143000 2.85172000 2.89892000 2.92964000 2.98704000 2.80712000 2.77270000 3.05096000 24.9302700 51.7729400 51.8083800 59.3899500 71.9241700 71.9230800 24.5660900 3.08979000 2.99891000 3.05765000 2.95952000 4.39604000 80.0000000 80.0000000 80.0000000 80.0000000 80.0000000 80.0000000 80.0000000 80.0000000 80.0000000 80.0000000 80.0000000 80.0000000 69.4493400 4.49762000 3.28491000 3.30060000 3.23190000 3.14390000 3.20103000 3.20398000 3.22947000 3.39897000 45.9207800 80.0000000 80.0000000 80.0000000 80.0000000 80.0000000 80.0000000 29.0407300 3.58585000 3.60937000 3.62498000 3.63389000 3.61837000 61.3804600 27.8129100 3.49148000 3.48554000 3.29425000 3.14413000 3.01696000 2.96136000 3.00650000 3.25505000 3.24024000 3.31162000 3.36961000 3.40101000 3.50142000 3.45601000 3.42351000 3.39339000 3.39908000 3.39194000
9999.00000 9999.00000 9999.00000 9999.00000 9999.00000 9999.00000 9999.00000 9999.00000 9999.00000 9999.00000 9999.00000 9999.00000 9999.00000 9999.00000 9999.00000 9999.00000 9999.00000 9999.00000 9999.00000 9999.00000 9999.00000 9999.00000 9999.00000 9999.00000 9999.00000 3296.60770 3.25815000 3.23906000 3.22284000 3.21729000 3.20343000 3.21386000 3.21113000 3.23128000 3.25128000 3.24181000 3.24002000 3.23515000 3.23154000 3.23573000 3.23891000 3.23011000 3.20531000 3.16850000 3.11084000 3.07858000 3.07267000 3.06512000 3.02712000 2.99149000 2.97890000 2.96228000 2.90877000 2.85908000 2.83115000 2.82711000 2.87051000 2.93497000 2.99230000 3.03464000 3.00893000 3.01099000 2.99379000 2.95169000 2.92856000 2.94878000 2.95694000 2.94824000 2.93351000 2.93772000 2.92342000 2.85802000 2.80467000 2.76122000 2.69596000 2.58306000 2.52238000 2.60078000 2.63457000 2.62476000 2.64794000 2.60903000 2.57182000 2.57447000 2.57198000 2.57412000 2.71166000 2.67210000 2.62168000 2.78263000 14.9224900 73.0241400 62.3652600 32.6752700 3.02695000 3.08132000 2.98106000 2.88053000 2.90791000 3.04764000 3.06738000 3.11542000 3.14546000 3.16003000 3.18256000 3.20759000 8.46704000 28.2417600 31.2996000 3.21987000 3.22394000 3.20073000 3.16358000 3.09089000 3.01143000 2.92305000 2.64110000 2.44276000 2.57996000 2.60024000 2.53253000 2.41642000 2.65862000 3.16590000 3.14228000 3.15008000 3.15557000 3.13790000 3.14396000 3.14377000 3.14504000 3.13844000 3.13927000 3.14270000 3.16074000 3.15252000 14.9518400 78.8452600 80.0000000 80.0000000 80.0000000 80.0000000 80.0000000 80.0000000 80.0000000 80.0000000 80.0000000 80.0000000 60.2395600 7.10643000 2.39592000 2.31733000 2.31077000 2.22209000 2.29924000 2.35948000 2.40559000 2.43252000 2.46230000 2.48761000 2.50351000 2.51573000 2.51486000 2.50102000 2.47373000 2.44790000 2.45746000 2.47083000 2.51212000 2.52689000 2.55457000 2.57854000 2.59769000 2.62348000 2.65398000 2.67432000 2.68897000 2.70406000 2.70281000 2.69575000 2.69744000 2.69509000 2.69039000 2.68109000 2.65988000 2.66907000 2.68807000 2.70117000 2.70807000 2.72743000 2.74243000 2.78024000 2.84152000 2.89282000 2.88098000 2.90604000 2.91029000 2.91924000 2.92953000 2.95081000 2.96190000 2.82946000 2.80707000 2.97540000 61.0784800 80.0000000 80.0000000 79.4084800 66.7938000 34.1622600 5.77558000 3.00580000 3.00055000 3.09317000 2.99159000 4.32639000 78.7482200 80.0000000 80.0000000 80.0000000 80.0000000 80.0000000 80.0000000 80.0000000 80.0000000 80.0000000 80.0000000 80.0000000 80.0000000 6.51147000 3.30068000 3.30770000 3.26647000 3.16254000 3.20592000 3.21419000 3.23522000 3.43410000 34.1857800 80.0000000 80.0000000 80.0000000 80.0000000 80.0000000 80.0000000 59.4271000 4.13941000 3.60963000 3.59767000 3.59961000 3.59603000 36.6813700 37.5371100 3.53336000 3.48025000 3.28087000 3.13690000 2.97479000 2.95567000 3.02070000 3.28393000 3.23139000 3.30950000 3.36163000 3.33067000 3.46501000 3.34240000 8.32214000 28.4954300 43.1873200 57.0819400
9999.00000 9999.00000 9999.00000 9999.00000 9999.00000 9999.00000 9999.00000 9999.00000 9999.00000 9999.00000 9999.00000 9999.00000 9999.00000 9999.00000 9999.00000 9999.00000 9999.00000 9999.00000 9999.00000 9999.00000 9999.00000 9999.00000 9999.00000 9999.00000 9951.41900 459.395940 3.20480000 3.17205000 3.16076000 3.16794000 3.16834000 3.18995000 3.17408000 3.19413000 3.22692000 3.23839000 3.23660000 3.23384000 3.22967000 3.22372000 3.22016000 3.20036000 3.18014000 3.12424000 3.08117000 3.05354000 3.04012000 3.04494000 3.01399000 2.99094000 2.94494000 2.91800000 2.89096000 2.85670000 2.83559000 2.82470000 2.93129000 2.98266000 3.06555000 3.10232000 3.11727000 3.11100000 3.10385000 3.03812000 2.97708000 2.98565000 3.00270000 3.01625000 2.99990000 2.96704000 2.93839000 2.92400000 2.90529000 2.88710000 2.85891000 2.78901000 2.69252000 2.65455000 2.57649000 2.46470000 2.53817000 2.62303000 2.61986000 2.58585000 2.52497000 2.60233000 2.70517000 2.60154000 2.57749000 2.74440000 2.84323000 8.10641000 17.8980800 33.6123200 3.16815000 3.09489000 3.11098000 3.08541000 2.97970000 2.95463000 2.95922000 3.07493000 3.10150000 3.10234000 3.11195000 3.13471000 3.15467000 3.16789000 3.16921000 3.16881000 3.17844000 3.15211000 3.08470000 3.05959000 2.96672000 2.84070000 2.46595000 2.50381000 2.58738000 2.57939000 2.48986000 2.40650000 2.91146000 3.18449000 3.16014000 3.14799000 3.14976000 3.14955000 3.13843000 3.14030000 3.14319000 3.13140000 3.13479000 3.14479000 3.16780000 3.12167000 41.2172600 80.0000000 80.0000000 80.0000000 80.0000000 80.0000000 80.0000000 80.0000000 80.0000000 80.0000000 80.0000000 80.0000000 57.6537400 2.39096000 2.35373000 2.33310000 2.27289000 2.29464000 2.39755000 2.58699000 2.65972000 2.65823000 2.52187000 2.44587000 2.44109000 2.46956000 2.50613000 2.53391000 2.54112000 2.54272000 2.54138000 2.54809000 2.57601000 2.60065000 2.61886000 2.62731000 2.62353000 2.62478000 2.62907000 2.61518000 2.61534000 2.60883000 2.60514000 2.61192000 2.62240000 2.65519000 2.62564000 2.68249000 2.76334000 2.80988000 2.81645000 2.83326000 2.83845000 2.84536000 2.85292000 2.86201000 2.86150000 2.87260000 2.88904000 2.87307000 2.88851000 2.90087000 2.92178000 2.94060000 2.93693000 2.85455000 2.87331000 2.94901000 15.6091800 52.7433000 41.3145400 16.3607400 3.15254000 3.08722000 3.13715000 3.08268000 2.99987000 3.12311000 3.01063000 3.05148000 61.2832600 80.0000000 80.0000000 80.0000000 80.0000000 80.0000000 80.0000000 80.0000000 80.0000000 80.0000000 80.0000000 80.0000000 80.0000000 12.1744700 3.27867000 3.27506000 3.25761000 3.17351000 3.20863000 3.24418000 3.22016000 3.45217000 25.5630300 80.0000000 80.0000000 80.0000000 80.0000000 80.0000000 80.0000000 80.0000000 26.7987800 3.57333000 3.55632000 3.56066000 3.57100000 3.53924000 3.53894000 3.50844000 3.43230000 3.24707000 3.09188000 2.98430000 2.96241000 3.03988000 3.31194000 3.26054000 3.30095000 3.34348000 3.34920000 3.41491000 3.47524000 60.8056200 80.0000000 80.0000000 80.0000000
9999.00000 9999.00000 9999.00000 9999.00000 9999.00000 9999.00000 9999.00000 9999.00000 9999.00000 9999.00000 9999.00000 9999.00000 9999.00000 9999.00000 9999.00000 9999.00000 9999.00000 9999.00000 9999.00000 9999.00000 9999.00000 9999.00000 9999.00000 9999.00000 7231.52200 3.14641000 3.12198000 3.10815000 3.10341000 3.10254000 3.12566000 3.13332000 3.14283000 3.17402000 3.19748000 3.20892000 3.22354000 3.21484000 3.22133000 3.21311000 3.19323000 3.16972000 3.14080000 3.10620000 3.08211000 3.04183000 3.02118000 3.00319000 2.98284000 2.95645000 2.91585000 2.88669000 2.84957000 2.82552000 2.82260000 2.85094000 2.93808000 3.02873000 3.09952000 3.11774000 3.16061000 3.17924000 3.15701000 3.10926000 3.07580000 3.05131000 3.04410000 3.03242000 2.99403000 2.98983000 2.99198000 2.98626000 2.96684000 2.92255000 2.88168000 2.86600000 2.83205000 2.79047000 2.74543000 2.67626000 2.62612000 2.57867000 2.54814000 2.52340000 2.51130000 2.65616000 2.68478000 2.55556000 2.59276000 2.64148000 2.71591000 2.77016000 2.80078000 2.85515000 2.87210000 2.95214000 3.03162000 3.03962000 2.99361000 3.03998000 3.05020000 3.03115000 3.00998000 2.99603000 3.02449000 3.04840000 3.07245000 3.08547000 3.11381000 3.12218000 3.13400000 3.07818000 3.03482000 2.99166000 2.90631000 2.70480000 2.38587000 2.53347000 2.58814000 2.56340000 2.45329000 2.43962000 2.91253000 3.07084000 3.12323000 3.14008000 3.15354000 3.15838000 3.14526000 3.11967000 3.13541000 3.13736000 3.14400000 3.15155000 3.15240000 3.13802000 60.4300500 80.0000000 80.0000000 80.0000000 80.0000000 80.0000000 80.0000000 80.0000000 80.0000000 80.0000000 80.0000000 80.0000000 38.2749900 2.40540000 2.32186000 2.36694000 2.24453000 2.31763000 2.40130000 2.58754000 7.54049000 2.82701000 2.82510000 2.75736000 2.62076000 2.52015000 2.44817000 2.46535000 2.48794000 2.50676000 2.51393000 2.52955000 2.50843000 2.54543000 2.54099000 2.52810000 2.54786000 2.58000000 2.60711000 2.60765000 2.65494000 2.72194000 2.76059000 2.82067000 2.82786000 2.84270000 2.77554000 2.74331000 2.87056000 2.85668000 2.82029000 2.85293000 2.84968000 2.94288000 2.87895000 2.89496000 2.90772000 2.89654000 2.90855000 2.90413000 2.90449000 2.90458000 2.93162000 2.93983000 2.91363000 2.89980000 2.93164000 2.99486000 3.12135000 3.13079000 3.12656000 3.12605000 3.13774000 3.13831000 3.13706000 3.09978000 2.99398000 3.13253000 3.02719000 3.02010000 56.4782200 80.0000000 80.0000000 80.0000000 80.0000000 80.0000000 80.0000000 80.0000000 80.0000000 80.0000000 80.0000000 80.0000000 80.0000000 26.5138800 3.29930000 3.29659000 3.29276000 3.19539000 3.21233000 3.26479000 3.22162000 3.43289000 6.05810000 80.0000000 80.0000000 80.0000000 80.0000000 80.0000000 80.0000000 80.0000000 30.1788100 3.55660000 3.54825000 3.53591000 3.52585000 3.51265000 3.53084000 3.53776000 3.46029000 3.26763000 3.16226000 3.03438000 2.98648000 3.06882000 3.33318000 3.25656000 3.30184000 3.34862000 3.37062000 3.39301000 3.45309000 46.4854800 80.0000000 80.0000000 80.0000000
9999.00000 9999.00000 9999.00000 9999.00000 9999.00000 9999.00000 9999.00000 9999.00000 9999.00000 9999.00000 9999.00000 9999.00000 9999.00000 9999.00000 9999.00000 9999.00000 9999.00000 9999.00000 9999.00000 9999.00000 9999.00000 9999.00000 9999.00000 9999.00000 4737.33300 3.14408000 3.12087000 3.07479000 3.07831000 3.07155000 3.07265000 3.08563000 3.08908000 3.10567000 3.13818000 3.15685000 3.15754000 3.17592000 3.18053000 3.16224000 3.15360000 3.15513000 3.12685000 3.09865000 3.04662000 3.04640000 3.02301000 2.97350000 2.95257000 2.91426000 2.87689000 2.80545000 2.78578000 2.80514000 2.82967000 2.88042000 2.97009000 3.06725000 3.14666000 3.16022000 3.17359000 3.18292000 3.19290000 3.16426000 3.14823000 3.13433000 3.11308000 3.10156000 3.06830000 3.02477000 3.01189000 3.03439000 3.02708000 3.01103000 2.96954000 2.91436000 2.83894000 2.80076000 2.77635000 2.79909000 2.78809000 2.74671000 2.66305000 2.51461000 2.53939000 2.66217000 2.63917000 2.53085000 2.63111000 2.74441000 2.78836000 2.78664000 2.75463000 2.74554000 2.76052000 2.78694000 2.83384000 2.90131000 2.96889000 2.97040000 3.01281000 2.99771000 2.94910000 2.90783000 2.94865000 2.97268000 3.01383000 3.01647000 3.03078000 3.04703000 3.05264000 3.01695000 2.96754000 2.92748000 2.83474000 2.55254000 2.44904000 2.54842000 2.58474000 2.50612000 2.39823000 2.45937000 2.88659000 2.85445000 2.89702000 2.96029000 3.04732000 3.10506000 3.12206000 3.09198000 3.11397000 3.12494000 3.13614000 3.13640000 3.14760000 14.4575900 78.7872000 80.0000000 80.0000000 80.0000000 80.0000000 80.0000000 80.0000000 80.0000000 80.0000000 80.0000000 80.0000000 80.0000000 13.6358100 2.44460000 2.33637000 2.36389000 2.22428000 2.28054000 2.39510000 33.2694000 72.4708800 42.1592000 17.8253800 3.55050000 2.92597000 2.88331000 2.79350000 2.73437000 2.59763000 2.46010000 2.40161000 2.39263000 2.35179000 2.44326000 2.50198000 2.64208000 2.80062000 2.80853000 2.81137000 2.79795000 2.78760000 2.77155000 2.75895000 2.74409000 2.70533000 2.80928000 2.84435000 2.77113000 2.82911000 2.80718000 2.82230000 2.86307000 2.89556000 2.95606000 2.91457000 2.90097000 2.90927000 2.89045000 2.88857000 2.89235000 2.89759000 2.92408000 2.94676000 2.95206000 2.93147000 2.92064000 2.96296000 3.00058000 3.09373000 3.15046000 3.13337000 3.14320000 3.14545000 3.12908000 3.10908000 3.10076000 3.00004000 3.12946000 3.06632000 3.03707000 41.1734400 80.0000000 80.0000000 80.0000000 80.0000000 80.0000000 80.0000000 80.0000000 80.0000000 80.0000000 80.0000000 80.0000000 80.0000000 35.6652800 3.28374000 3.27825000 3.27547000 3.20425000 3.21408000 3.25942000 3.23616000 3.40483000 6.03448000 80.0000000 80.0000000 80.0000000 80.0000000 80.0000000 80.0000000 80.0000000 4.98306000 3.54050000 3.53389000 3.54934000 3.52904000 3.52937000 3.55644000 3.55114000 3.47963000 3.26545000 3.18690000 3.04441000 3.01608000 3.08762000 3.33233000 3.25472000 3.30206000 3.33854000 3.35616000 3.42698000 3.43717000 42.6313000 80.0000000 80.0000000 80.0000000
9999.00000 9999.00000 9999.00000 9999.00000 9999.00000 9999.00000 9999.00000 9999.00000 9999.00000 9999.00000 9999.00000 9999.00000 9999.00000 9999.00000 9999.00000 9999.00000 9999.00000 9999.00000 9999.00000 9999.00000 9999.00000 9999.00000 9999.00000 9999.00000 1561.28980 3.17525000 3.16735000 3.10407000 3.10933000 3.07399000 3.06100000 3.05133000 3.04048000 3.06806000 3.07438000 3.09406000 3.10274000 3.11521000 3.12701000 3.13329000 3.13374000 3.11923000 3.08665000 3.06606000 3.04688000 3.03308000 2.99879000 2.96463000 2.94778000 2.90557000 2.84263000 2.76121000 2.74989000 2.78023000 2.86416000 2.92984000 2.97484000 3.07858000 3.15456000 3.19150000 3.19409000 3.21021000 3.21053000 3.21589000 3.20002000 3.16276000 3.14030000 3.13868000 3.12093000 3.10512000 3.10834000 3.10946000 3.08948000 3.02687000 2.96612000 2.94071000 2.88568000 2.82340000 2.78514000 2.80608000 2.82510000 2.82050000 2.72489000 2.53048000 2.57726000 2.67042000 2.59275000 2.52927000 2.62076000 2.69930000 2.77358000 2.82516000 2.83828000 2.82847000 2.81371000 2.79072000 2.76890000 2.77868000 2.78324000 2.86930000 2.97587000 2.93778000 2.90212000 2.82245000 2.84568000 2.88513000 2.92532000 2.91664000 2.93700000 2.98278000 2.98850000 2.96010000 2.90665000 2.84538000 2.76950000 2.42627000 2.43257000 2.55419000 2.55245000 2.46075000 2.36695000 2.51214000 2.78001000 2.83279000 2.86097000 2.87888000 2.88331000 2.92627000 2.97548000 3.03661000 3.06603000 3.10075000 3.13399000 3.13373000 3.13113000 32.4102800 80.0000000 80.0000000 80.0000000 80.0000000 80.0000000 80.0000000 80.0000000 80.0000000 80.0000000 80.0000000 80.0000000 70.0808400 4.24819000 2.43741000 2.35045000 2.32722000 2.22042000 2.29574000 4.00441000 70.5154100 80.0000000 80.0000000 80.0000000 71.5039900 46.8131400 27.5983800 7.96917000 2.89925000 2.80451000 2.67197000 2.67058000 2.57557000 2.41313000 2.44526000 2.53758000 2.67740000 2.71371000 2.68942000 2.62722000 2.60905000 2.57427000 2.55599000 2.56268000 2.58062000 2.56978000 2.71460000 2.88386000 2.80235000 2.85004000 2.86295000 2.89626000 2.91822000 2.89284000 2.88066000 2.89006000 2.90048000 2.89990000 2.91517000 2.91680000 2.93419000 2.93195000 2.95483000 2.96271000 2.97636000 2.95640000 2.95381000 2.99339000 3.04283000 3.08376000 3.10031000 3.10125000 3.15105000 3.12551000 3.10259000 3.08322000 3.15035000 2.98883000 3.12923000 3.10521000 3.04619000 38.1949700 80.0000000 80.0000000 80.0000000 80.0000000 80.0000000 80.0000000 80.0000000 80.0000000 80.0000000 80.0000000 80.0000000 80.0000000 49.5682900 3.28618000 3.27929000 3.28297000 3.22765000 3.22024000 3.28114000 3.27539000 3.38606000 4.30656000 33.5444900 34.0701900 28.5763800 28.5443300 64.2474800 80.0000000 80.0000000 45.2786400 3.52029000 3.50570000 3.53426000 3.54925000 3.56341000 3.52600000 3.46586000 3.44112000 3.28898000 3.21908000 3.02044000 3.05213000 3.11347000 3.32724000 3.23205000 3.29319000 3.31543000 3.37672000 3.49555000 3.50146000 26.5319000 80.0000000 80.0000000 80.0000000
9999.00000 9999.00000 9999.00000 9999.00000 9999.00000 9999.00000 9999.00000 9999.00000 9999.00000 9999.00000 9999.00000 9999.00000 9999.00000 9999.00000 9999.00000 9999.00000 9999.00000 9999.00000 9999.00000 9999.00000 9999.00000 9999.00000 9999.00000 9999.00000 22.1172700 3.25607000 3.20095000 3.15869000 3.15724000 3.12935000 3.09437000 3.08175000 3.07477000 3.05581000 3.06072000 3.06636000 3.05436000 3.06081000 3.04964000 3.07265000 3.07376000 3.05349000 3.01618000 3.02264000 3.02672000 3.00286000 2.96030000 2.94650000 2.92708000 2.88673000 2.83821000 2.76301000 2.73565000 2.77839000 2.79120000 2.89280000 2.99991000 3.10670000 3.18099000 3.21721000 3.22678000 3.22848000 3.22306000 3.24709000 3.24198000 3.21875000 3.20197000 3.22036000 3.18705000 3.15756000 3.14980000 3.13270000 3.11772000 3.06453000 2.99955000 2.94203000 2.88186000 2.82222000 2.79843000 2.78528000 2.80210000 2.80930000 2.66836000 2.49171000 2.61431000 2.63922000 2.54022000 2.62149000 2.74129000 2.74853000 2.75135000 2.75356000 2.77751000 2.81197000 2.83887000 2.86022000 2.84301000 2.82760000 2.81056000 2.81073000 2.82508000 2.82707000 2.82304000 2.79588000 2.77307000 2.81205000 2.83710000 2.83788000 2.83792000 2.88697000 2.88143000 2.86582000 2.81858000 2.77232000 2.63358000 2.37803000 2.47638000 2.54317000 2.51729000 2.42797000 2.35986000 2.62354000 2.81402000 2.86961000 2.87553000 2.87382000 2.88341000 2.89641000 2.90741000 2.91278000 2.93891000 2.99604000 3.06636000 3.12650000 3.12167000 56.8333300 80.0000000 80.0000000 80.0000000 80.0000000 80.0000000 80.0000000 80.0000000 80.0000000 80.0000000 80.0000000 80.0000000 47.2420100 2.47655000 2.39340000 2.35943000 2.27286000 2.25793000 2.34828000 20.5782300 80.0000000 80.0000000 80.0000000 80.0000000 80.0000000 80.0000000 80.0000000 75.1408100 55.6643700 3.04594000 2.79090000 2.84472000 2.69125000 2.46850000 2.50429000 2.56477000 2.56403000 2.57329000 2.55056000 2.52698000 2.52587000 2.51552000 2.48843000 2.51120000 2.52511000 2.53209000 2.59113000 2.80622000 2.82792000 2.85422000 2.89653000 2.91325000 2.99315000 2.97389000 2.90692000 2.89811000 2.90547000 2.92187000 2.92949000 2.95128000 2.96452000 2.96022000 2.97482000 2.97437000 2.99449000 2.99001000 2.98748000 3.03132000 3.07695000 3.08376000 3.08236000 3.07698000 3.15342000 3.16356000 14.8456100 39.6575700 3.17393000 3.03416000 3.10866000 3.12655000 3.05098000 21.1189000 80.0000000 80.0000000 80.0000000 80.0000000 80.0000000 80.0000000 80.0000000 80.0000000 80.0000000 80.0000000 80.0000000 80.0000000 66.6085600 3.25012000 3.28283000 3.27749000 3.24928000 3.22929000 3.27988000 3.29760000 3.35819000 3.43736000 3.43782000 3.48200000 3.49489000 3.46446000 15.1718800 43.0015200 52.0316400 42.4900600 3.56405000 3.59945000 3.62769000 3.65040000 3.58061000 3.50149000 3.47168000 3.44885000 3.31293000 3.22611000 3.06900000 3.09154000 3.15517000 3.34986000 3.24109000 3.28842000 3.31897000 3.38894000 3.52835000 3.47737000 8.77541000 80.0000000 80.0000000 80.0000000
9999.00000 9999.00000 9999.00000 9999.00000 9999.00000 9999.00000 9999.00000 9999.00000 9999.00000 9999.00000 9999.00000 9999.00000 9999.00000 9999.00000 9999.00000 9999.00000 9999.00000 9999.00000 9999.00000 9999.00000 9999.00000 9999.00000 9999.00000 9999.00000 22.1467900 3.28300000 3.21233000 3.18167000 3.16427000 3.13145000 3.11866000 3.12079000 3.09489000 3.08771000 3.06519000 3.06565000 3.05754000 3.04599000 3.01673000 3.04172000 3.04938000 3.04148000 3.01409000 2.98611000 2.98236000 2.95884000 2.92532000 2.92112000 2.87978000 2.85551000 2.81758000 2.77546000 2.76184000 2.77740000 2.83005000 2.89736000 3.01705000 3.15109000 3.20519000 3.24112000 3.25533000 3.24713000 3.24215000 3.26162000 3.24585000 3.24116000 3.24784000 3.24549000 3.22150000 3.19817000 3.17044000 3.14163000 3.10270000 3.07087000 3.02473000 2.99437000 2.93499000 2.82789000 2.80931000 2.77228000 2.77582000 2.76622000 2.58942000 2.47145000 2.64669000 2.61519000 2.54377000 2.70985000 2.89007000 2.96250000 2.95439000 2.91801000 2.89605000 2.84369000 2.81334000 2.81494000 2.83637000 2.85272000 2.84726000 2.83157000 2.82191000 2.80723000 2.77369000 2.73815000 2.71078000 2.68944000 2.72361000 2.74250000 2.76176000 2.78101000 2.76253000 2.76539000 2.74552000 2.70696000 2.50653000 2.37977000 2.47669000 2.53933000 2.46340000 2.37937000 2.45727000 2.76527000 2.82574000 2.86324000 2.88540000 2.90879000 2.91230000 2.91100000 2.90849000 2.92339000 2.93461000 3.04191000 3.08264000 3.91113000 38.0807600 76.5072000 80.0000000 80.0000000 80.0000000 80.0000000 80.0000000 80.0000000 80.0000000 80.0000000 80.0000000 80.0000000 80.0000000 21.3665900 2.46078000 2.35202000 2.35663000 2.25051000 2.35070000 2.45317000 45.2046600 80.0000000 80.0000000 80.0000000 80.0000000 80.0000000 80.0000000 80.0000000 80.0000000 67.2449600 3.07234000 2.84437000 2.80405000 2.64598000 2.62282000 2.59275000 2.59861000 2.58504000 2.57516000 2.51813000 2.49275000 2.46830000 2.42621000 2.44658000 2.49693000 2.52603000 2.54067000 2.57839000 2.73664000 2.87946000 2.92260000 2.94367000 2.93120000 2.97330000 2.97786000 2.94867000 2.94298000 2.94062000 2.95553000 2.95874000 2.98401000 2.99242000 3.01626000 3.00928000 3.03665000 3.05978000 3.03216000 3.04066000 3.06245000 3.06484000 3.12638000 10.5731600 4.49411000 3.12737000 3.17388000 45.9077200 37.9363000 3.04610000 2.99019000 3.05825000 3.13390000 3.03547000 10.6278400 78.7970400 80.0000000 80.0000000 80.0000000 80.0000000 80.0000000 80.0000000 80.0000000 80.0000000 80.0000000 80.0000000 80.0000000 66.6102000 3.29266000 3.34561000 3.33061000 3.34457000 3.28675000 3.28957000 3.32247000 3.35541000 3.41939000 3.43156000 3.48624000 3.51862000 3.49846000 3.49838000 3.55163000 3.53176000 3.50674000 3.62064000 3.63784000 3.62306000 3.62663000 3.57795000 3.53760000 3.50296000 3.45060000 3.34137000 3.26039000 3.10578000 3.12931000 3.21852000 3.37408000 3.24885000 3.28918000 3.30071000 3.42443000 3.48536000 3.44958000 4.77260000 70.1348700 80.0000000 80.0000000
9999.00000 9999.00000 9999.00000 9999.00000 9999.00000 9999.00000 9999.00000 9999.00000 9999.00000 9999.00000 9999.00000 9999.00000 9999.00000 9999.00000 9999.00000 9999.00000 9999.00000 9999.00000 9999.00000 9999.00000 9999.00000 9999.00000 9999.00000 9999.00000 743.715940 3.29349000 3.20679000 3.15559000 3.13618000 3.09997000 3.09675000 3.09015000 3.06689000 3.07625000 3.08371000 3.07549000 3.06652000 3.06238000 3.03961000 3.03743000 3.01597000 3.02735000 3.00194000 2.95123000 2.93974000 2.94832000 2.92744000 2.92132000 2.88127000 2.82777000 2.80315000 2.74428000 2.76884000 2.85591000 2.93903000 2.95521000 3.06563000 3.17784000 3.22042000 3.24705000 3.25638000 3.24960000 3.25302000 3.27043000 3.27287000 3.27163000 3.29270000 3.27700000 3.25922000 3.23889000 3.19031000 3.14354000 3.11198000 3.08105000 3.05716000 3.00923000 2.91925000 2.85695000 2.83456000 2.76142000 2.73994000 2.62732000 2.49207000 2.46686000 2.63732000 2.57868000 2.57084000 2.81177000 3.51503000 14.8016400 4.14980000 3.15120000 3.12166000 3.03069000 2.94040000 2.82359000 2.80073000 2.80569000 2.81813000 2.81913000 2.81814000 2.82908000 2.82397000 2.80449000 2.74626000 2.66548000 2.61270000 2.61497000 2.65544000 2.68052000 2.66885000 2.65746000 2.63052000 2.66073000 2.40145000 2.39454000 2.48583000 2.51223000 2.43714000 2.34281000 2.63398000 2.89194000 2.83550000 2.85844000 2.89602000 2.91470000 2.91593000 2.90833000 2.90120000 2.91807000 2.94215000 3.00667000 3.09030000 22.0347700 80.0000000 80.0000000 80.0000000 80.0000000 80.0000000 80.0000000 80.0000000 80.0000000 80.0000000 80.0000000 80.0000000 80.0000000 65.4347700 2.88594000 2.42664000 2.34145000 2.33684000 2.30765000 2.47994000 2.49754000 64.5659000 80.0000000 80.0000000 80.0000000 80.0000000 80.0000000 80.0000000 80.0000000 80.0000000 29.2373300 2.94856000 2.80429000 2.62198000 2.56374000 2.60957000 2.61595000 2.63435000 2.60448000 2.59526000 2.55187000 2.50409000 2.47119000 2.44115000 2.47127000 2.51151000 2.56173000 2.58635000 2.64725000 2.79555000 2.90850000 2.94431000 2.96239000 2.93247000 2.92708000 2.96558000 2.97109000 2.97690000 2.97374000 2.98177000 3.00270000 3.03677000 3.05060000 3.07546000 3.08178000 3.08869000 3.10738000 3.15695000 3.09294000 3.05448000 3.06919000 3.10984000 34.2556100 5.14485000 3.08399000 3.14138000 3.11248000 3.09978000 3.11704000 3.03687000 3.03697000 3.15355000 3.03286000 3.06486000 77.6277000 80.0000000 80.0000000 80.0000000 80.0000000 80.0000000 80.0000000 80.0000000 80.0000000 79.9444800 78.8339600 78.8335800 49.9445800 3.25162000 3.32235000 3.42435000 3.43319000 3.29197000 3.29829000 3.34523000 3.33688000 3.45878000 3.53169000 3.59338000 3.63160000 3.69489000 55.6689900 64.6078600 64.6087800 31.4429000 3.60334000 3.60697000 3.60946000 3.60962000 3.53522000 3.51207000 3.43747000 3.41549000 3.36254000 3.23335000 3.15876000 3.15837000 3.17349000 3.22024000 3.21913000 3.29099000 3.30065000 3.43548000 3.52157000 3.46069000 3.54886000 52.3378200 80.0000000 80.0000000
9999.00000 9999.00000 9999.00000 9999.00000 9999.00000 9999.00000 9999.00000 9999.00000 9999.00000 9999.00000 9999.00000 9999.00000 9999.00000 9999.00000 9999.00000 9999.00000 9999.00000 9999.00000 9999.00000 9999.00000 9999.00000 9999.00000 9999.00000 9999.00000 4601.63870 3.29475000 3.20239000 3.12140000 3.11349000 3.09982000 3.08198000 3.07569000 3.07174000 3.06878000 3.06748000 3.07621000 3.07217000 3.07661000 3.07990000 3.05764000 2.98182000 2.97969000 2.96038000 2.93617000 2.93289000 2.93151000 2.91125000 2.89450000 2.85740000 2.83226000 2.80394000 2.74821000 2.78457000 2.87501000 2.94232000 3.00088000 3.11077000 3.19149000 3.22921000 3.24513000 3.25668000 3.25111000 3.26034000 3.29278000 3.27889000 3.28811000 3.30115000 3.27554000 3.25727000 3.23245000 3.17981000 3.13731000 3.12417000 3.10262000 3.06968000 3.00159000 2.88733000 2.82440000 2.83041000 2.76032000 2.72058000 2.63206000 2.52167000 2.56228000 2.62053000 2.52664000 2.61919000 2.76874000 55.2553600 80.0000000 77.5141900 61.1046500 38.4675700 7.09106000 3.06679000 2.93624000 2.90192000 2.87768000 2.87775000 2.87409000 2.80815000 2.78180000 2.79826000 2.82557000 2.80917000 2.76856000 2.71392000 2.67533000 2.61959000 2.59679000 2.55975000 2.56385000 2.58631000 2.38481000 2.32020000 2.41865000 2.48970000 2.48907000 2.39014000 2.36949000 2.78341000 2.87568000 2.85405000 2.88682000 2.91677000 2.93087000 2.94025000 2.92788000 2.90729000 2.91363000 2.93322000 2.93007000 2.94052000 45.8162400 80.0000000 80.0000000 80.0000000 80.0000000 80.0000000 80.0000000 80.0000000 80.0000000 80.0000000 80.0000000 80.0000000 80.0000000 46.5002400 2.49499000 2.36970000 2.36407000 2.29503000 2.27865000 2.37346000 13.1915900 78.5081000 80.0000000 80.0000000 80.0000000 80.0000000 80.0000000 80.0000000 80.0000000 78.4424000 11.5855000 3.00761000 2.84563000 2.68898000 2.65105000 2.63504000 2.63911000 2.68023000 2.64024000 2.61232000 2.57605000 2.53560000 2.50691000 2.49639000 2.50418000 2.55025000 2.60025000 2.63514000 2.68082000 2.85258000 2.93003000 2.94171000 2.97291000 2.95800000 2.93603000 2.95299000 2.98088000 2.99702000 3.01233000 3.00829000 3.05975000 3.06576000 3.06374000 3.08457000 3.10651000 3.14779000 3.08605000 3.10438000 3.09023000 3.06772000 3.08088000 3.17342000 3.26810000 3.24885000 3.19426000 3.16252000 3.12898000 3.09994000 3.10427000 3.06409000 3.01786000 3.15308000 3.04518000 3.07825000 57.8483800 80.0000000 80.0000000 80.0000000 80.0000000 66.6767000 53.3589200 42.2185800 40.3391500 21.2485800 3.27041000 3.25246000 3.24849000 3.26260000 3.23805000 3.23751000 3.38298000 3.32531000 3.29736000 3.35580000 3.32906000 3.46238000 3.63058000 3.71270000 3.70581000 3.86866000 64.2421600 80.0000000 80.0000000 45.0609000 3.71144000 3.63589000 3.63266000 3.59167000 3.49566000 3.48561000 3.42964000 3.41861000 3.39059000 3.24235000 3.22243000 3.19414000 3.21072000 3.30397000 3.19816000 3.27938000 3.30433000 3.46158000 3.51499000 3.51575000 3.54888000 47.7291000 80.0000000 80.0000000
9999.00000 9999.00000 9999.00000 9999.00000 9999.00000 9999.00000 9999.00000 9999.00000 9999.00000 9999.00000 9999.00000 9999.00000 9999.00000 9999.00000 9999.00000 9999.00000 9999.00000 9999.00000 9999.00000 9999.00000 9999.00000 9999.00000 9999.00000 9999.00000 8738.65000 212.321880 3.17794000 3.12992000 3.12655000 3.15926000 3.14165000 3.11257000 3.10274000 3.10146000 3.09197000 3.08775000 3.07466000 3.07310000 3.07136000 3.05807000 2.97194000 2.98388000 2.96806000 2.94700000 2.94071000 2.93898000 2.91500000 2.84824000 2.80891000 2.80387000 2.78146000 2.78309000 2.82795000 2.92309000 2.97032000 3.01617000 3.12884000 3.18169000 3.21724000 3.24709000 3.25470000 3.26006000 3.27028000 3.27995000 3.27464000 3.28441000 3.28787000 3.27156000 3.24673000 3.21166000 3.16436000 3.15207000 3.11581000 3.08648000 3.06055000 2.98649000 2.89012000 2.83338000 2.81328000 2.73389000 2.72913000 2.61563000 2.48198000 2.60438000 2.57803000 2.51546000 2.67405000 36.9824500 79.4158000 80.0000000 80.0000000 80.0000000 80.0000000 73.0382900 10.6801000 3.00829000 2.99984000 2.99895000 3.04435000 2.95526000 2.83174000 2.76005000 2.74179000 2.80059000 2.75729000 2.73307000 2.74786000 2.73910000 2.72523000 2.66971000 2.59742000 2.50638000 2.40814000 2.28993000 2.33467000 2.41801000 2.48836000 2.43189000 2.34694000 2.43300000 2.82261000 2.90403000 2.87626000 2.91095000 2.92977000 2.93958000 2.94159000 2.91700000 2.91041000 2.91508000 2.93803000 2.93367000 5.65070000 71.6450800 80.0000000 80.0000000 80.0000000 80.0000000 80.0000000 80.0000000 80.0000000 80.0000000 80.0000000 80.0000000 80.0000000 80.0000000 27.1533900 2.48832000 2.35895000 2.38803000 2.26724000 2.31205000 2.44300000 31.0342200 80.0000000 80.0000000 80.0000000 80.0000000 80.0000000 80.0000000 80.0000000 80.0000000 73.0740400 2.92642000 2.93419000 2.79158000 2.72418000 2.68732000 2.67702000 2.69380000 2.77154000 2.75690000 2.67829000 2.63384000 2.62045000 2.61076000 2.61073000 2.61802000 2.64813000 2.67613000 2.71052000 2.76665000 2.92831000 2.99532000 2.96628000 2.98782000 2.94734000 2.95804000 2.94983000 2.97394000 3.00185000 3.02565000 3.04558000 3.06625000 3.09172000 3.12704000 3.09823000 3.08386000 3.12612000 3.11325000 3.08469000 3.08328000 3.07925000 3.09933000 3.23574000 3.25317000 3.20830000 3.15581000 3.10505000 7.17191000 13.9761000 3.10324000 3.04918000 3.01177000 3.12537000 3.06616000 3.07382000 22.8408400 45.5722300 27.8660000 8.72999000 15.9209700 3.78940000 3.29164000 3.29545000 3.26452000 3.27762000 3.27512000 3.27780000 3.25549000 3.25043000 3.21048000 3.20501000 3.34769000 3.43018000 3.30024000 3.37258000 3.34103000 3.44407000 3.56654000 3.62011000 3.68269000 3.84615000 48.9885000 80.0000000 80.0000000 53.9873200 3.65710000 3.64329000 3.63918000 3.56288000 3.45153000 3.43867000 3.41270000 3.48275000 3.47432000 3.28239000 3.27224000 3.25678000 3.28126000 3.30621000 3.24968000 3.26755000 3.28390000 3.47414000 3.55170000 4.78218000 40.2716700 75.0768400 80.0000000 70.1626800
9999.00000 9999.00000 9999.00000 9999.00000 9999.00000 9999.00000 9999.00000 9999.00000 9999.00000 9999.00000 9999.00000 9999.00000 9999.00000 9999.00000 9999.00000 9999.00000 9999.00000 9999.00000 9999.00000 9999.00000 9999.00000 9999.00000 9999.00000 9999.00000 9999.00000 2515.41820 3.16706000 3.16434000 3.18310000 3.18093000 3.16234000 3.13162000 3.12043000 3.11963000 3.12543000 3.11440000 3.11702000 3.11036000 3.09838000 3.04679000 3.00410000 3.02641000 2.98492000 2.95103000 2.94497000 2.95584000 2.94184000 2.88893000 2.79047000 2.73271000 2.76804000 2.78387000 2.83066000 2.92839000 2.98340000 3.04149000 3.14008000 3.17787000 3.21909000 3.23397000 3.24060000 3.25842000 3.27153000 3.27651000 3.28622000 3.28753000 3.26996000 3.25315000 3.21440000 3.17673000 3.12853000 3.12052000 3.09179000 3.09709000 3.07926000 2.98755000 2.89606000 2.84780000 2.80427000 2.73343000 2.71827000 2.45702000 2.32762000 2.60631000 2.53938000 2.53202000 2.82175000 11.4701500 61.0982700 80.0000000 80.0000000 80.0000000 80.0000000 80.0000000 77.2877800 60.3918400 32.0783400 3.06163000 3.10597000 3.03607000 2.90053000 2.79881000 2.80050000 2.87938000 2.84837000 2.82118000 2.76990000 2.70156000 2.65985000 2.64024000 2.62320000 2.52271000 2.37194000 2.27708000 2.34117000 2.44396000 2.46831000 2.40808000 2.28880000 2.43086000 2.68972000 2.89824000 2.91429000 2.90775000 2.94371000 2.94821000 2.93508000 2.90195000 2.91489000 2.91284000 2.92622000 2.93423000 22.3637600 80.0000000 80.0000000 80.0000000 80.0000000 80.0000000 80.0000000 80.0000000 80.0000000 80.0000000 80.0000000 80.0000000 80.0000000 78.6472400 3.91957000 2.45627000 2.37764000 2.37081000 2.27188000 2.35087000 2.45724000 53.2472200 80.0000000 80.0000000 80.0000000 80.0000000 80.0000000 80.0000000 80.0000000 80.0000000 48.5737200 2.91283000 2.91643000 2.79742000 2.75871000 2.74730000 2.76148000 2.84212000 2.90296000 2.88422000 2.74385000 2.76098000 2.83088000 2.77134000 2.78305000 2.77363000 2.79125000 2.79220000 2.83345000 2.92410000 3.02588000 3.06975000 3.01742000 3.02354000 2.98457000 2.97485000 2.98237000 2.99677000 3.01044000 3.01733000 3.05775000 3.04652000 3.16536000 3.19628000 6.97715000 14.8439500 34.1310200 48.8882600 57.5667600 71.8303400 13.0085000 3.09298000 3.18895000 3.24719000 3.16357000 56.5969900 74.2943600 75.9282200 61.3988500 3.12426000 3.07811000 2.99592000 3.10406000 3.06850000 3.07429000 3.13580000 3.17615000 3.19722000 3.20941000 3.21291000 3.22203000 3.23675000 3.24990000 3.25223000 3.26377000 3.26864000 3.26570000 3.25183000 3.24469000 3.22204000 3.19840000 3.21308000 3.38040000 3.28994000 3.35255000 3.34179000 3.42170000 3.53428000 3.60139000 3.68684000 3.79337000 48.9475500 80.0000000 80.0000000 64.9741300 3.57172000 3.59716000 3.54893000 3.48628000 3.43960000 3.45527000 3.45903000 3.53670000 3.55855000 3.38007000 3.30571000 3.28461000 3.44105000 3.33697000 3.26540000 3.26652000 3.26527000 3.43299000 3.57262000 5.76574000 39.6049100 29.1565500 9.30710000 5.35545000
9999.00000 9999.00000 9999.00000 9999.00000 9999.00000 9999.00000 9999.00000 9999.00000 9999.00000 9999.00000 9999.00000 9999.00000 9999.00000 9999.00000 9999.00000 9999.00000 9999.00000 9999.00000 9999.00000 9999.00000 9999.00000 9999.00000 9999.00000 9999.00000 9229.68750 302.343960 3.15165000 3.16157000 3.19676000 3.18079000 3.15204000 3.13082000 3.11708000 3.12769000 3.14568000 3.15418000 3.14854000 3.13888000 3.12023000 3.07366000 3.03191000 3.02688000 3.00372000 2.94904000 2.94396000 2.93755000 2.92292000 2.86082000 2.79940000 2.69143000 2.71795000 2.78352000 2.82191000 2.91357000 2.97032000 3.06947000 3.13395000 3.16855000 3.21683000 3.22917000 3.23606000 3.23864000 3.25490000 3.28783000 3.29236000 3.28871000 3.26044000 3.23188000 3.20983000 3.14610000 3.09462000 3.11058000 3.06644000 3.06598000 3.03882000 2.95448000 2.88500000 2.83790000 2.77554000 2.72222000 2.67685000 2.38091000 2.32992000 2.50582000 2.49717000 2.59081000 2.97566000 3.21231000 5.22737000 59.6150000 59.3619800 64.6535800 72.7698400 32.3039600 32.2618300 46.1644800 51.5128800 3.13055000 3.12081000 3.04507000 2.88328000 2.83911000 2.86317000 2.88490000 2.90422000 2.93069000 2.90043000 2.80429000 2.74435000 2.66381000 2.57238000 2.44610000 2.33142000 2.27606000 2.37402000 2.46606000 2.44289000 2.35731000 2.25337000 2.33324000 2.52055000 2.67899000 2.78905000 2.82623000 2.88119000 2.93862000 2.93143000 2.90909000 2.91125000 2.90979000 2.91047000 2.89964000 41.5836000 80.0000000 80.0000000 80.0000000 80.0000000 80.0000000 80.0000000 80.0000000 80.0000000 80.0000000 80.0000000 80.0000000 80.0000000 60.7170400 2.53722000 2.41017000 2.38057000 2.32097000 2.28514000 2.36366000 13.4203400 79.0137400 80.0000000 80.0000000 80.0000000 80.0000000 80.0000000 80.0000000 80.0000000 80.0000000 62.6644400 25.3739200 6.48355000 10.3349200 10.3158700 27.6875600 30.4802300 40.8234800 50.6989300 69.7029900 62.9674600 2.87770000 2.95284000 2.91526000 2.92995000 2.86947000 2.86056000 2.85322000 2.90920000 3.01091000 3.07345000 3.12443000 3.04871000 3.02429000 3.00898000 3.00025000 3.01537000 3.03950000 3.05807000 3.06198000 3.06505000 3.05106000 3.15743000 29.6357200 74.0334800 80.0000000 80.0000000 80.0000000 80.0000000 80.0000000 31.8445800 3.03692000 3.11590000 3.19122000 3.13122000 65.0008800 80.0000000 80.0000000 63.2043400 3.21612000 3.07839000 2.98187000 3.07856000 3.07254000 3.03594000 3.11963000 3.16061000 3.17247000 3.18297000 3.20231000 3.21872000 3.21989000 3.23056000 3.23002000 3.23003000 3.22760000 3.25279000 3.24593000 3.23265000 3.23280000 3.21999000 3.19444000 3.24427000 3.28739000 3.35684000 3.35030000 3.39177000 3.49043000 3.60819000 3.72675000 3.84195000 31.5328000 80.0000000 80.0000000 74.2840900 6.58405000 3.54443000 3.56646000 3.48796000 3.46708000 3.46914000 3.51751000 3.60336000 3.58220000 3.37708000 3.32354000 3.34063000 3.53803000 3.41989000 3.23292000 3.26135000 3.26382000 3.39996000 3.48829000 3.48836000 3.51039000 3.52416000 3.55007000 3.55516000
9999.00000 9999.00000 9999.00000 9999.00000 9999.00000 9999.00000 9999.00000 9999.00000 9999.00000 9999.00000 9999.00000 9999.00000 9999.00000 9999.00000 9999.00000 9999.00000 9999.00000 9999.00000 9999.00000 9999.00000 9999.00000 9999.00000 9588.08500 6182.63570 3338.14140 3.15831000 3.17427000 3.18074000 3.19033000 3.18660000 3.17162000 3.13840000 3.14653000 3.15038000 3.16590000 3.16690000 3.15660000 3.15333000 3.09745000 3.07446000 3.07233000 3.05734000 3.00749000 2.95775000 2.94482000 2.92117000 2.87203000 2.81530000 2.77289000 2.70618000 2.71511000 2.76971000 2.83364000 2.89149000 2.97331000 3.07535000 3.12119000 3.15841000 3.20835000 3.22652000 3.22893000 3.23873000 3.26722000 3.29731000 3.30213000 3.27054000 3.25501000 3.22468000 3.20421000 3.13064000 3.08690000 3.08236000 3.05090000 3.05172000 3.00791000 2.91418000 2.85117000 2.82265000 2.74242000 2.69812000 2.62850000 2.42994000 2.43703000 2.47065000 2.45119000 2.67350000 3.08949000 3.24564000 3.18940000 3.17413000 3.12792000 3.18542000 6.40082000 3.05658000 2.99089000 3.01013000 2.98933000 3.12412000 3.12501000 2.98124000 2.86768000 2.86234000 2.86897000 2.82928000 2.78897000 2.78573000 2.81646000 2.80636000 2.78089000 2.76877000 2.66716000 2.44188000 2.25117000 2.28559000 2.40243000 2.45928000 2.40038000 2.30221000 2.21725000 2.34779000 2.47615000 2.54467000 2.59801000 2.67682000 2.73771000 2.78430000 2.86037000 2.89063000 2.89932000 2.91646000 2.92416000 5.91062000 69.4221000 80.0000000 80.0000000 80.0000000 80.0000000 80.0000000 80.0000000 80.0000000 80.0000000 80.0000000 80.0000000 80.0000000 80.0000000 45.5925000 2.47277000 2.31589000 2.35204000 2.28178000 2.38182000 2.45456000 31.7871500 80.0000000 80.0000000 80.0000000 80.0000000 80.0000000 80.0000000 80.0000000 80.0000000 80.0000000 80.0000000 80.0000000 73.4080500 80.0000000 80.0000000 80.0000000 80.0000000 80.0000000 80.0000000 80.0000000 78.5427200 12.3046600 3.00558000 2.97229000 2.95107000 2.92409000 2.91396000 2.90666000 2.93839000 3.03134000 3.07358000 3.13310000 3.01922000 3.03874000 3.02255000 3.01452000 3.03366000 3.04494000 3.07448000 3.07213000 3.02651000 3.01706000 3.04233000 33.1627200 80.0000000 80.0000000 80.0000000 80.0000000 68.5925600 29.9388200 4.71432000 2.98847000 3.09262000 3.12515000 3.09259000 45.8104500 80.0000000 80.0000000 80.0000000 4.56665000 3.09986000 2.96188000 3.05558000 3.08191000 3.06789000 3.18561000 3.17031000 3.17601000 3.18852000 3.18912000 3.20578000 3.22618000 3.23494000 3.21680000 3.22307000 3.23320000 3.23746000 3.23061000 3.23298000 3.23389000 3.24991000 3.26344000 3.27785000 3.28047000 3.32661000 3.33968000 3.35145000 3.49573000 3.73257000 3.99434000 4.15093000 18.0150000 80.0000000 80.0000000 80.0000000 9.49601000 3.51872000 3.56797000 3.48747000 3.52148000 3.53294000 3.59374000 3.63719000 3.57759000 3.36867000 3.36491000 3.41863000 3.52412000 3.40202000 3.23929000 3.24815000 3.28816000 3.41437000 3.48375000 3.50803000 3.53185000 3.56013000 3.58246000 3.63929000
9999.00000 9999.00000 9999.00000 9999.00000 9999.00000 9999.00000 9999.00000 9999.00000 9999.00000 9999.00000 9999.00000 9999.00000 9999.00000 9919.60000 9917.01100 9989.06600 9999.00000 9999.00000 9999.00000 9999.00000 9620.84300 5484.64650 908.126650 3.14813000 3.15535000 3.16185000 3.19679000 3.20356000 3.21352000 3.20580000 3.18167000 3.15081000 3.13444000 3.15271000 3.17893000 3.18513000 3.17405000 3.16872000 3.12620000 3.11388000 3.09605000 3.07284000 3.01942000 2.95096000 2.91722000 2.89440000 2.85647000 2.81062000 2.72949000 2.69598000 2.74322000 2.75505000 2.83748000 2.88213000 2.97843000 3.07732000 3.10933000 3.16780000 3.21277000 3.23111000 3.24179000 3.24850000 3.26831000 3.28183000 3.28654000 3.27242000 3.24846000 3.20827000 3.17354000 3.10934000 3.05773000 3.05446000 3.04489000 3.04199000 2.95798000 2.86852000 2.82248000 2.76600000 2.70183000 2.65452000 2.55663000 2.46951000 2.48574000 2.39881000 2.42352000 2.78673000 3.02317000 3.08405000 3.11494000 3.12912000 3.19541000 3.21186000 3.15662000 3.01822000 2.96490000 2.95063000 3.00110000 3.11428000 3.10855000 2.91645000 2.85051000 2.76400000 2.78892000 2.76765000 2.73934000 2.73620000 2.72758000 2.72620000 2.70008000 2.73412000 2.71613000 2.49734000 2.30648000 2.31993000 2.41900000 2.44048000 2.35818000 2.25873000 2.22732000 2.39919000 2.55430000 2.66604000 2.71305000 2.69272000 2.66364000 2.66934000 2.69088000 2.74608000 2.79199000 2.85119000 2.97738000 7.43636000 58.0308700 79.5536800 80.0000000 80.0000000 80.0000000 80.0000000 80.0000000 80.0000000 80.0000000 80.0000000 80.0000000 80.0000000 78.6704700 13.6904100 2.43439000 2.30746000 2.31458000 2.21662000 2.31869000 2.49642000 51.1495500 80.0000000 80.0000000 80.0000000 80.0000000 80.0000000 80.0000000 80.0000000 80.0000000 80.0000000 80.0000000 80.0000000 80.0000000 80.0000000 80.0000000 80.0000000 80.0000000 80.0000000 80.0000000 80.0000000 80.0000000 19.5631800 2.97634000 2.98076000 2.95727000 2.96723000 2.96236000 2.95563000 2.97030000 3.04900000 3.09273000 3.11937000 3.00143000 3.04577000 3.02845000 3.00360000 3.01908000 2.99820000 3.01469000 3.00971000 2.98230000 3.06067000 3.16594000 11.9509100 39.1733600 27.8437900 19.0196400 33.7852000 14.2445200 3.01324000 2.97538000 2.95672000 3.07862000 3.17019000 3.10876000 32.0235400 80.0000000 80.0000000 80.0000000 9.98649000 3.08742000 2.95844000 3.00765000 3.07556000 3.08248000 3.24342000 3.20329000 3.20131000 3.21004000 3.19672000 3.20614000 3.22586000 3.22395000 3.23236000 3.24101000 3.24205000 3.24196000 3.23222000 3.22656000 3.24267000 3.24679000 3.28519000 3.32880000 3.22617000 3.29507000 3.30488000 3.27737000 3.49232000 3.77193000 4.08658000 4.34789000 9.60020000 79.8812500 80.0000000 80.0000000 28.4326400 3.52787000 3.49432000 3.52897000 3.57011000 3.62549000 3.66898000 3.66478000 3.61208000 3.42782000 3.40856000 3.47930000 3.57107000 3.31717000 3.29027000 3.26856000 3.33119000 3.44621000 3.47725000 3.52183000 3.54012000 3.58265000 3.65741000 3.68599000
9999.00000 9999.00000 9999.00000 9999.00000 9999.00000 9999.00000 9999.00000 8478.19200 4075.38380 2531.84250 2531.74340 2531.64200 2531.49850 82.7167200 3.03828000 2225.67870 4027.46730 7802.24070 9999.00000 9600.84600 2656.30030 3.05106000 3.08754000 3.14384000 3.17522000 3.17152000 3.19795000 3.22335000 3.24405000 3.23166000 3.20716000 3.17239000 3.15054000 3.14209000 3.15095000 3.16354000 3.16198000 3.14342000 3.12063000 3.11293000 3.09534000 3.05100000 3.01305000 2.92888000 2.89054000 2.88295000 2.86740000 2.78974000 2.73883000 2.75515000 2.76726000 2.75642000 2.84834000 2.88379000 2.99133000 3.06540000 3.10900000 3.18352000 3.22479000 3.23842000 3.23475000 3.25400000 3.27348000 3.28091000 3.28105000 3.28546000 3.23845000 3.18241000 3.13896000 3.08274000 3.05390000 3.02752000 3.02396000 2.99810000 2.88838000 2.81130000 2.75647000 2.68470000 2.66947000 2.61675000 2.36533000 2.36210000 2.44661000 2.34993000 2.54743000 2.91568000 2.96685000 3.01415000 3.04570000 3.07614000 3.08535000 3.11589000 3.11452000 2.95250000 2.91704000 2.89273000 2.95714000 3.08032000 3.05248000 2.88096000 2.81951000 2.74295000 2.74277000 2.73256000 2.70728000 2.68681000 2.67031000 2.67775000 2.68555000 2.68348000 2.64726000 2.49800000 2.30643000 2.33641000 2.41127000 2.39579000 2.31379000 2.19632000 2.27203000 2.41769000 2.52738000 2.65241000 2.71392000 2.75907000 2.76467000 2.75403000 2.74646000 2.71438000 2.69601000 2.73033000 2.78902000 2.82831000 2.83262000 8.55026000 32.6331600 57.1670700 79.0342600 80.0000000 80.0000000 80.0000000 80.0000000 80.0000000 80.0000000 80.0000000 65.2190200 2.44820000 2.36308000 2.32860000 2.27757000 2.21495000 2.27522000 2.58499000 27.2763000 56.7338500 74.1201100 80.0000000 80.0000000 80.0000000 80.0000000 80.0000000 80.0000000 80.0000000 80.0000000 80.0000000 80.0000000 80.0000000 80.0000000 80.0000000 80.0000000 80.0000000 80.0000000 80.0000000 80.0000000 34.2888700 2.97606000 2.99559000 2.99728000 2.97999000 2.97427000 2.97307000 3.00329000 3.06466000 3.07697000 3.09068000 3.01834000 3.00995000 2.99688000 2.98983000 3.00305000 2.97084000 2.97707000 2.96319000 2.92944000 2.99484000 3.01932000 2.98110000 2.92804000 2.91993000 2.88314000 2.86533000 2.84660000 2.81959000 2.81062000 2.86597000 2.93276000 3.06419000 3.11083000 17.9058400 54.5667700 62.7283800 57.8467600 8.89364000 3.08140000 2.99408000 3.01442000 3.09099000 3.05826000 3.22172000 3.19549000 3.19735000 3.18928000 3.20038000 3.20601000 3.21286000 3.23086000 3.24404000 3.24327000 3.25952000 3.23677000 3.23578000 3.24354000 3.24491000 3.23467000 3.24515000 3.28521000 3.23362000 3.26938000 3.30601000 3.26920000 3.42554000 3.73768000 4.12397000 4.36018000 4.39102000 65.5260400 80.0000000 80.0000000 28.4428900 3.54635000 3.50773000 3.51713000 3.56826000 3.65115000 3.69564000 3.72133000 3.63521000 3.45462000 3.42272000 3.47165000 3.51017000 3.35265000 3.28230000 3.27640000 3.41436000 3.47308000 3.52162000 3.54323000 3.60461000 3.65054000 3.72671000 3.70213000
9999.00000 9999.00000 9999.00000 9999.00000 9999.00000 9961.67500 5597.91360 265.421800 3.28166000 3.15897000 2.97967000 2.88753000 2.65017000 2.81535000 2.93650000 3.19061000 3.26800000 100.283870 2890.91380 5280.66900 2.98685000 3.07324000 3.10949000 3.13594000 3.18675000 3.20954000 3.22244000 3.24359000 3.25680000 3.25675000 3.25251000 3.19077000 3.15147000 3.11976000 3.10507000 3.10012000 3.11410000 3.09499000 3.09389000 3.09062000 3.05453000 3.01962000 2.97554000 2.96030000 2.93698000 2.91399000 2.84857000 2.73714000 2.72525000 2.79116000 2.82450000 2.80435000 2.82355000 2.86613000 3.00088000 3.07791000 3.12346000 3.19434000 3.23189000 3.23578000 3.24895000 3.27973000 3.29604000 3.30361000 3.29719000 3.29475000 3.23481000 3.13793000 3.08162000 3.03962000 3.02251000 3.01203000 2.99154000 2.92744000 2.79696000 2.72240000 2.67046000 2.59223000 2.65349000 2.56282000 2.33133000 2.39929000 2.41114000 2.34664000 2.59827000 2.95328000 2.94620000 2.94813000 2.99009000 3.01344000 3.02076000 3.06430000 3.04370000 2.90016000 2.85801000 2.82836000 2.92927000 3.04447000 3.00212000 2.88676000 2.85384000 2.81201000 2.76943000 2.74012000 2.72334000 2.70727000 2.68469000 2.66460000 2.65402000 2.65419000 2.61163000 2.46585000 2.27420000 2.34608000 2.40555000 2.36375000 2.24748000 2.21357000 2.44159000 2.53894000 2.64611000 2.74178000 2.75303000 2.73595000 2.75105000 2.76754000 2.78178000 2.77790000 2.76425000 2.74574000 2.73443000 2.70059000 2.70343000 2.75275000 2.77047000 2.74326000 20.3694600 78.6022800 80.0000000 80.0000000 80.0000000 80.0000000 80.0000000 80.0000000 36.8870600 2.40096000 2.28235000 2.30177000 2.22913000 2.21984000 2.39673000 2.78429000 2.85586000 2.90229000 4.76999000 19.9846800 52.2495400 69.8042800 80.0000000 80.0000000 80.0000000 80.0000000 80.0000000 80.0000000 80.0000000 80.0000000 80.0000000 80.0000000 80.0000000 80.0000000 80.0000000 80.0000000 80.0000000 43.1722300 2.97357000 3.00186000 2.98399000 2.97956000 2.97082000 2.97605000 2.99913000 3.02817000 3.00089000 3.01917000 2.95407000 2.93590000 2.97930000 2.99660000 2.96039000 2.96226000 2.96591000 2.93916000 2.90406000 2.85276000 2.78844000 2.76173000 2.73694000 2.72613000 2.75042000 2.76213000 2.77759000 2.79639000 2.76559000 2.73063000 2.73080000 2.93403000 3.04188000 3.00777000 3.15576000 3.09230000 3.02017000 3.00443000 3.01724000 2.97984000 2.97701000 3.08623000 3.01715000 3.23012000 3.19651000 3.15159000 3.15681000 3.18964000 3.20183000 3.20342000 3.22146000 3.23121000 3.24760000 3.25352000 3.23368000 3.24902000 3.24250000 3.23628000 3.23100000 3.26046000 3.32204000 3.23227000 3.24190000 3.29129000 3.24739000 3.35884000 3.69087000 4.07360000 4.36546000 4.41315000 51.6670000 80.0000000 80.0000000 47.6950600 3.54847000 3.51896000 3.50939000 3.59368000 3.68837000 3.75017000 3.73897000 3.56212000 3.49207000 3.45470000 3.56441000 3.59094000 3.38450000 3.27102000 3.26985000 3.44276000 3.48679000 3.52439000 3.54700000 3.58217000 3.65034000 3.74460000 3.71678000
9999.00000 9999.00000 9999.00000 9999.00000 9386.05200 2501.46600 3.31453000 3.31408000 3.26161000 3.14024000 2.98561000 2.92229000 2.75183000 2.81044000 2.97691000 3.14339000 3.31847000 3.02283000 2.81510000 2.77018000 3.02456000 3.13488000 3.12738000 3.15031000 3.19965000 3.24339000 3.22149000 3.23008000 3.26311000 3.26656000 3.22730000 3.17696000 3.13620000 3.08694000 3.05717000 3.06414000 3.07943000 3.08243000 3.07556000 3.06189000 3.03920000 3.00674000 2.97776000 2.96559000 2.94565000 2.90835000 2.87295000 2.81945000 2.77623000 2.80827000 2.83039000 2.84055000 2.81752000 2.88101000 3.01530000 3.08855000 3.13622000 3.19504000 3.22846000 3.24019000 3.26384000 3.28084000 3.29756000 3.30974000 3.29973000 3.25752000 3.16995000 3.10283000 3.05528000 3.01282000 2.99487000 2.98166000 2.95881000 2.85243000 2.72334000 2.66040000 2.58922000 2.55907000 2.61425000 2.51406000 2.40533000 2.44435000 2.38815000 2.35220000 2.66756000 2.88620000 2.89863000 2.89278000 2.92621000 2.93611000 2.97304000 3.06128000 2.98596000 2.85011000 2.80928000 2.76945000 2.81021000 2.93591000 2.95856000 2.88799000 2.85988000 2.90499000 2.80075000 2.75592000 2.72910000 2.72732000 2.70945000 2.69778000 2.67623000 2.64775000 2.59274000 2.35993000 2.26627000 2.34698000 2.39818000 2.29876000 2.18919000 2.28981000 2.63747000 2.76437000 2.84378000 2.87732000 2.92344000 2.90515000 2.91485000 2.84861000 2.75614000 2.72887000 2.72788000 2.72514000 2.72012000 2.71954000 2.69670000 2.70274000 2.64027000 2.60834000 2.62118000 28.7385300 56.0022900 75.2664500 80.0000000 80.0000000 80.0000000 73.9235400 9.54992000 2.37273000 2.26844000 2.28636000 2.20612000 2.24101000 2.51509000 2.76532000 2.83229000 2.86096000 2.92862000 2.94524000 2.95822000 4.61361000 24.1669100 48.6339400 69.2169000 80.0000000 80.0000000 80.0000000 80.0000000 80.0000000 80.0000000 80.0000000 80.0000000 80.0000000 80.0000000 80.0000000 80.0000000 54.4385000 3.00160000 3.02069000 2.97921000 2.93834000 2.94278000 2.95841000 2.97161000 2.95823000 2.94781000 2.93784000 2.87233000 2.83782000 2.88840000 2.92723000 2.92516000 2.88827000 2.85924000 2.81951000 2.78175000 2.69445000 2.67424000 2.70810000 2.74577000 2.79333000 2.85077000 2.84879000 2.81136000 2.86110000 9.08622000 12.8942800 2.81143000 3.02307000 3.16091000 3.09263000 3.09354000 3.08942000 3.11009000 3.11089000 3.09136000 3.04639000 2.97661000 3.07816000 2.98376000 3.15669000 3.20183000 3.14286000 3.13985000 3.17970000 3.17682000 3.19510000 3.19279000 3.22004000 3.23189000 3.24067000 3.22672000 3.23319000 3.23295000 3.23666000 3.25189000 3.25044000 3.32771000 3.28002000 3.23230000 3.27743000 3.23970000 3.30646000 3.61599000 3.99446000 4.32674000 4.36960000 45.7656600 80.0000000 80.0000000 51.0991200 3.49331000 3.52503000 3.53918000 3.64196000 3.70799000 3.78491000 3.79847000 3.61829000 3.54385000 3.48793000 3.66462000 3.62236000 3.35254000 3.26824000 3.26409000 3.39174000 3.48840000 3.57005000 3.58587000 3.56091000 3.61651000 3.73597000 3.79026000
9999.00000 9999.00000 9999.00000 9611.06700 2320.04800 3.28909000 3.27683000 3.27777000 3.23127000 3.12637000 3.07258000 2.96741000 2.76348000 2.80821000 2.98299000 3.32770000 3.47753000 3.09155000 2.80929000 2.69750000 3.00518000 3.14633000 3.16638000 3.13092000 3.17225000 3.23665000 3.20848000 3.17288000 3.19515000 3.18721000 3.18580000 3.16266000 3.12643000 3.06326000 3.02801000 3.04698000 3.05400000 3.04837000 3.01799000 3.01415000 3.01038000 2.98992000 2.97923000 2.98826000 2.96058000 2.90813000 2.85808000 2.84195000 2.77782000 2.77897000 2.80680000 2.85886000 2.84494000 2.92802000 3.02661000 3.08870000 3.13513000 3.18819000 3.21638000 3.22859000 3.27623000 3.29411000 3.29468000 3.30282000 3.29176000 3.20600000 3.13535000 3.07878000 3.02657000 2.97958000 2.94965000 2.94056000 2.87380000 2.74628000 2.65827000 2.54470000 2.46480000 2.55428000 2.58701000 2.42753000 2.40228000 2.42833000 2.31879000 2.33842000 2.62927000 2.78911000 2.84407000 2.84441000 2.86216000 2.88548000 2.94657000 3.07741000 2.90598000 2.79923000 2.77152000 2.73740000 2.77339000 2.90570000 2.92857000 2.87275000 2.81083000 2.81329000 2.78920000 2.76837000 2.74894000 2.73384000 2.72088000 2.71201000 2.68299000 2.65887000 2.56554000 2.24908000 2.27354000 2.35173000 2.36172000 2.27138000 2.16389000 2.39847000 2.65962000 2.72875000 2.75124000 2.80496000 2.92098000 2.97311000 2.98333000 2.97895000 2.81037000 2.71576000 2.70183000 2.72105000 2.67458000 2.66051000 2.66352000 2.66036000 2.64498000 2.58001000 2.53859000 2.47564000 2.46572000 7.79484000 27.6840900 43.0299800 13.5147400 8.63465000 2.41574000 2.33958000 2.28338000 2.26359000 2.20819000 2.29172000 2.57200000 2.75605000 2.79388000 2.83992000 2.92088000 2.92719000 2.94230000 2.97884000 2.99791000 3.00389000 4.25707000 51.7949200 80.0000000 80.0000000 80.0000000 80.0000000 80.0000000 80.0000000 80.0000000 80.0000000 80.0000000 80.0000000 80.0000000 66.7692400 2.98681000 3.00423000 2.95716000 2.92292000 2.93703000 2.94726000 2.92554000 2.90660000 2.88148000 2.85633000 2.74465000 2.70942000 2.74808000 2.79313000 2.79282000 2.78107000 2.77020000 2.75889000 2.74734000 2.67184000 2.67088000 7.22122000 16.7480700 29.9568300 40.4276500 50.1387600 64.0229000 70.2872400 76.1167600 77.6836000 4.44143000 3.03840000 3.18974000 3.21918000 3.18263000 3.16795000 3.18555000 3.19219000 3.15608000 3.07784000 2.98226000 3.08059000 3.01314000 3.08924000 3.27547000 3.17576000 3.15165000 3.16317000 3.16934000 3.19357000 3.19541000 3.21368000 3.23067000 3.25028000 3.23911000 3.25104000 3.24311000 3.25082000 3.27882000 3.28543000 3.31812000 3.29132000 3.21563000 3.25117000 3.22820000 3.28834000 3.52931000 3.70768000 3.81965000 3.83484000 43.7010200 80.0000000 80.0000000 66.5578600 3.39529000 3.50022000 3.58131000 3.65766000 3.75409000 3.83763000 3.83200000 3.68255000 3.57491000 3.52700000 3.69119000 3.51428000 3.31926000 3.25699000 3.25925000 3.38978000 3.51427000 3.60686000 3.59326000 3.58145000 3.66436000 3.75751000 3.83568000
9999.00000 9999.00000 9999.00000 7292.72750 3.26434000 3.25560000 3.24280000 3.25559000 3.18850000 3.08893000 3.03538000 2.92018000 2.65830000 2.75984000 2.94547000 3.31057000 3.55136000 3.07559000 2.71150000 2.67201000 2.92552000 3.12118000 3.20855000 3.11996000 3.16684000 3.21488000 3.19095000 3.15059000 3.13007000 3.09662000 3.11699000 3.09841000 3.08280000 3.04670000 3.02544000 3.02911000 3.03823000 3.02985000 2.99660000 2.97870000 2.96384000 2.95699000 2.96026000 2.97849000 2.94800000 2.87351000 2.79131000 2.78342000 2.74950000 2.75003000 2.78218000 2.83496000 2.85124000 2.98065000 3.06874000 3.11550000 3.14822000 3.18395000 3.19598000 3.22537000 3.26319000 3.27544000 3.26964000 3.26937000 3.25851000 3.17166000 3.11523000 3.06589000 3.01475000 2.95431000 2.89410000 2.87234000 2.78399000 2.66237000 2.61346000 2.47748000 2.41983000 2.54847000 2.50658000 2.25428000 2.37853000 2.42756000 2.29550000 2.37944000 2.50951000 2.65675000 2.76115000 2.80250000 2.84846000 2.90950000 2.99140000 3.08724000 2.85758000 2.77014000 2.72839000 2.72674000 2.76857000 2.91048000 2.91200000 2.85921000 2.84345000 2.82722000 2.80129000 2.78626000 2.76629000 2.73957000 2.73139000 2.70212000 2.68690000 2.65353000 2.51242000 2.22327000 2.29363000 2.37798000 2.33562000 2.21250000 2.17846000 2.56867000 2.75847000 2.83787000 2.85645000 2.88898000 2.89920000 2.92844000 2.90060000 2.88742000 2.84760000 2.78722000 2.82397000 2.92433000 2.83698000 2.73467000 2.67413000 2.61074000 2.57556000 2.56343000 2.53780000 2.48500000 2.42344000 2.37633000 2.35782000 2.37161000 2.39898000 2.42791000 2.37525000 2.22748000 2.28365000 2.23307000 2.32439000 2.45780000 2.65929000 2.77372000 2.81442000 2.88328000 2.90015000 2.92306000 2.93850000 2.96972000 2.98696000 3.00244000 2.97757000 35.8671400 80.0000000 80.0000000 80.0000000 80.0000000 76.7838200 74.8740200 56.2791000 40.6896500 36.0916500 27.5822800 15.9291000 14.9922900 2.82479000 2.87884000 2.90738000 2.93588000 2.95061000 2.95463000 2.92598000 2.93597000 2.90728000 2.80690000 2.70598000 2.69185000 2.75414000 2.78268000 6.18755000 9.07470000 26.4584800 32.7244000 46.6530300 51.0699200 66.8089700 75.4150600 80.0000000 80.0000000 80.0000000 80.0000000 80.0000000 80.0000000 80.0000000 80.0000000 20.3886900 2.95531000 3.22153000 3.23978000 3.18761000 3.14381000 3.14446000 3.20223000 3.25550000 3.09180000 3.00807000 3.07104000 3.05561000 3.06984000 3.27463000 3.14251000 3.14914000 3.16142000 3.14812000 3.17685000 3.17357000 3.20633000 3.22951000 3.24965000 3.25786000 3.27477000 3.28426000 3.34670000 3.36366000 3.33952000 3.34546000 3.44558000 3.32790000 3.22165000 3.22044000 3.26764000 3.38117000 3.44487000 3.49215000 3.57115000 13.0282100 51.7812400 52.5555100 17.6254400 3.47455000 3.53390000 3.56792000 3.65689000 3.79825000 3.87391000 3.84944000 3.65621000 3.59818000 3.57855000 3.72023000 3.49281000 3.25989000 3.25191000 3.26733000 3.40798000 3.49744000 3.56369000 3.58697000 3.59891000 3.66609000 3.78842000 3.88378000
9999.00000 9999.00000 9999.00000 3671.29470 3.22439000 3.21428000 3.21971000 3.23027000 3.18331000 3.04227000 2.93110000 2.90077000 2.70266000 2.72275000 2.87210000 3.20259000 3.50476000 3.12307000 2.78568000 2.75731000 2.90403000 3.09065000 3.17189000 3.07053000 3.14650000 3.16721000 3.13528000 3.09170000 3.07014000 3.05494000 3.05333000 3.04093000 3.02351000 3.00258000 2.99019000 3.00064000 2.99792000 3.00445000 2.99508000 2.98118000 2.94784000 2.92099000 2.93052000 2.94511000 2.92463000 2.85300000 2.80990000 2.77133000 2.76087000 2.74926000 2.76769000 2.81094000 2.88918000 3.01650000 3.09394000 3.13155000 3.15506000 3.17622000 3.19030000 3.21359000 3.24393000 3.25430000 3.25717000 3.24762000 3.20082000 3.12477000 3.06924000 3.02604000 2.98736000 2.91445000 2.85763000 2.80343000 2.70548000 2.61833000 2.58053000 2.49864000 2.46798000 2.54671000 2.48528000 2.34978000 2.41517000 2.37308000 2.28597000 2.42611000 2.49907000 2.63297000 2.73061000 2.77078000 2.83045000 2.92810000 3.02822000 3.07286000 2.82981000 2.73141000 2.68489000 2.69906000 2.76348000 2.86230000 2.85825000 2.81661000 2.81502000 2.82557000 2.82008000 2.80730000 2.78992000 2.75657000 2.72594000 2.70603000 2.69110000 2.62929000 2.40557000 2.22157000 2.31182000 2.35111000 2.27852000 2.16219000 2.25143000 2.73175000 2.84939000 3.04297000 3.04776000 2.94524000 2.97618000 2.98322000 2.94805000 2.91785000 2.88059000 2.85765000 2.84626000 2.91267000 3.02448000 2.95773000 2.87067000 2.82671000 2.58046000 2.52194000 2.47131000 2.42613000 2.40347000 2.37164000 2.33731000 2.32554000 2.31653000 2.26500000 2.18137000 2.20645000 2.27345000 2.27763000 2.44782000 2.57061000 2.65633000 2.76808000 2.81931000 2.86087000 2.89417000 2.91987000 2.93867000 2.96776000 3.01542000 3.01388000 2.91529000 37.4439500 59.7258200 64.9230000 55.5154100 20.3562300 4.27522000 2.76272000 2.76630000 2.79673000 2.78019000 2.79768000 2.83518000 2.85693000 2.86909000 2.90724000 2.93026000 2.94798000 2.97898000 3.01852000 3.09049000 3.10135000 22.6419800 41.8057200 61.0241200 63.3626200 63.3657600 63.3761300 79.4357000 80.0000000 80.0000000 80.0000000 80.0000000 80.0000000 80.0000000 80.0000000 80.0000000 80.0000000 80.0000000 80.0000000 80.0000000 80.0000000 80.0000000 80.0000000 36.1803800 2.82008000 3.22449000 3.23314000 3.15325000 3.15565000 3.23352000 3.29032000 3.23006000 3.18306000 3.01917000 3.05935000 3.07899000 3.04509000 3.28813000 3.21526000 3.18233000 3.20585000 3.21868000 3.19303000 3.16868000 3.19452000 3.18769000 3.33041000 3.34748000 3.35763000 3.32319000 3.36532000 3.29781000 3.34190000 3.38922000 3.53383000 3.41727000 3.20518000 3.20250000 3.23906000 3.37143000 3.44547000 3.44557000 3.44586000 3.45691000 3.44022000 3.38779000 3.44269000 3.44702000 3.52667000 3.53236000 3.63546000 3.84655000 3.90085000 3.88338000 3.66520000 3.59554000 3.61455000 3.80528000 3.57079000 3.28735000 3.22870000 3.27316000 3.40503000 3.48787000 3.53678000 3.56985000 3.58910000 3.68344000 3.79356000 3.90726000
9999.00000 9999.00000 9093.11200 832.734250 3.19321000 3.19307000 3.19279000 3.18850000 3.14747000 2.99493000 2.95233000 2.88164000 2.68809000 2.71383000 2.87176000 3.31108000 3.55121000 3.11862000 2.77889000 2.83845000 3.01712000 3.12490000 3.18754000 3.14621000 3.15289000 3.11173000 3.07500000 3.03514000 3.02921000 3.03420000 3.02409000 3.01517000 2.99155000 2.97646000 2.96110000 2.97591000 2.95921000 2.97076000 2.97843000 2.94841000 2.91494000 2.89644000 2.88716000 2.90228000 2.87288000 2.81272000 2.79902000 2.77112000 2.82289000 2.77366000 2.79475000 2.81701000 2.93345000 3.04459000 3.11758000 3.14788000 3.16740000 3.18193000 3.20099000 3.22160000 3.22768000 3.23520000 3.21971000 3.18520000 3.14083000 3.07540000 3.01808000 2.98453000 2.93787000 2.87508000 2.81464000 2.73862000 2.65031000 2.59530000 2.56864000 2.50106000 2.47094000 2.52406000 2.33767000 2.31861000 2.41529000 2.33501000 2.33483000 2.46463000 2.48311000 2.56370000 2.68889000 2.72715000 2.78212000 2.81095000 2.84086000 2.83741000 2.77429000 2.70534000 2.65745000 2.69431000 2.75626000 2.81778000 2.76778000 2.72609000 2.76518000 2.79629000 2.82047000 2.82005000 2.79910000 2.75567000 2.73989000 2.71010000 2.68712000 2.58672000 2.28437000 2.23591000 2.30698000 2.32619000 2.23860000 2.12031000 2.39763000 2.87880000 2.97842000 3.17108000 3.08889000 3.02454000 2.98156000 2.98671000 2.97530000 2.95040000 2.90822000 2.87179000 2.83160000 2.84102000 2.95280000 2.98601000 2.87123000 2.79634000 2.69796000 2.64518000 2.64023000 2.61723000 2.47990000 2.30784000 2.28314000 2.28799000 2.29044000 2.25705000 2.17292000 2.23722000 2.25414000 2.26126000 2.42240000 2.48521000 2.66712000 2.77093000 2.82230000 2.88512000 2.91904000 2.94564000 2.97782000 3.00599000 3.02686000 2.99779000 2.83170000 2.74458000 2.72753000 2.73808000 2.74251000 2.74027000 2.73351000 2.82257000 2.82515000 2.79967000 2.82481000 2.87923000 2.92548000 2.95652000 7.78431000 19.7208100 28.9638300 39.8453800 52.5423300 59.9875400 76.0375200 80.0000000 80.0000000 80.0000000 80.0000000 80.0000000 80.0000000 80.0000000 80.0000000 80.0000000 80.0000000 80.0000000 80.0000000 80.0000000 80.0000000 80.0000000 80.0000000 80.0000000 80.0000000 80.0000000 80.0000000 80.0000000 80.0000000 80.0000000 40.5352100 2.80043000 3.10321000 3.11537000 3.12161000 3.18759000 3.22935000 3.26658000 3.25772000 3.24824000 3.03709000 3.03440000 3.08035000 3.04229000 3.23546000 3.32367000 3.28190000 3.26077000 3.28996000 3.25307000 3.32096000 3.31703000 3.33671000 3.32186000 20.9672400 36.5418000 20.0046900 9.85420000 3.26898000 3.32641000 3.39557000 3.52536000 3.47474000 3.19172000 3.20240000 3.22530000 3.28509000 3.34592000 3.37024000 3.38153000 3.36941000 3.34184000 3.37189000 3.41993000 3.41444000 3.46601000 3.52394000 3.64196000 3.86940000 3.93108000 3.89546000 3.70803000 3.63061000 3.64916000 3.80866000 3.57142000 3.29522000 3.22788000 3.30569000 3.42061000 3.51767000 3.54319000 3.54495000 3.61921000 3.72086000 3.77937000 3.87616000
9999.00000 5208.86430 416.901100 3.17921000 3.17380000 3.17328000 3.17253000 3.18532000 3.12800000 2.99086000 2.97163000 2.90221000 2.71671000 2.72380000 2.88361000 3.39175000 3.59009000 3.13406000 2.76088000 2.81376000 2.96807000 3.10295000 3.12597000 3.15342000 3.13954000 3.07384000 3.03398000 3.00343000 2.99788000 2.99738000 3.00403000 2.97708000 2.96999000 2.96332000 2.97124000 2.97832000 2.96471000 2.95668000 2.93011000 2.90857000 2.89277000 2.86840000 2.85652000 2.84352000 2.82593000 2.77806000 2.76059000 2.76635000 2.83348000 2.79986000 2.81991000 2.84175000 2.97913000 3.08349000 3.13705000 3.14963000 3.16863000 3.17977000 3.18635000 3.21752000 3.21080000 3.21363000 3.18791000 3.14789000 3.11453000 3.02461000 2.97693000 2.92466000 2.88668000 2.82564000 2.76712000 2.70325000 2.57495000 2.55007000 2.52579000 2.45951000 2.47108000 2.49893000 2.22971000 2.18991000 2.37417000 2.30227000 2.37287000 2.43870000 2.49657000 2.52505000 2.59249000 2.66194000 2.71816000 2.75600000 2.76860000 2.74579000 2.71780000 2.66692000 2.62289000 2.66300000 2.76334000 2.73025000 2.68376000 2.72375000 2.80581000 2.82510000 2.80663000 2.81837000 2.78505000 2.75681000 2.71992000 2.69976000 2.65387000 2.49104000 2.19317000 2.24978000 2.32200000 2.29069000 2.20272000 2.13901000 2.56126000 2.92838000 3.07909000 3.09304000 3.14235000 3.17500000 3.08431000 2.97099000 2.95733000 2.93357000 2.87189000 2.86770000 2.87405000 2.87126000 2.89260000 2.93286000 2.84566000 2.76920000 2.72102000 2.68591000 2.64522000 2.56714000 2.54549000 2.37459000 2.31904000 2.29095000 2.26508000 2.19834000 2.15900000 2.25241000 2.22633000 2.28310000 2.41437000 2.45991000 2.66276000 2.79281000 2.84865000 2.91358000 2.95654000 2.97628000 3.00591000 2.95854000 2.91382000 2.91701000 2.80842000 2.70423000 2.70562000 2.69835000 2.71849000 2.74498000 2.76993000 2.81980000 2.85962000 2.89552000 2.95474000 2.91905000 11.4792600 76.6500800 70.3248400 66.7108000 52.2615700 43.5790800 26.5856700 26.5798300 27.5720500 80.0000000 80.0000000 80.0000000 80.0000000 80.0000000 80.0000000 80.0000000 80.0000000 80.0000000 80.0000000 80.0000000 80.0000000 80.0000000 80.0000000 80.0000000 80.0000000 80.0000000 80.0000000 80.0000000 80.0000000 80.0000000 80.0000000 80.0000000 54.5676000 2.76639000 3.13038000 3.16554000 3.18236000 3.23094000 3.23547000 3.26839000 3.25805000 3.20601000 3.05038000 2.99869000 3.09503000 3.02006000 3.18608000 3.23895000 3.20860000 3.24579000 3.26793000 3.28676000 3.36676000 3.37194000 3.32422000 3.25665000 40.1217100 80.0000000 80.0000000 47.3210800 3.23587000 3.28891000 3.36642000 3.47301000 3.52765000 3.18744000 3.19440000 3.19170000 3.23808000 3.24273000 3.26289000 3.27806000 3.29132000 3.30109000 3.33538000 3.36324000 3.37332000 3.40477000 3.50989000 3.67555000 3.84401000 3.91427000 3.91758000 3.70509000 3.62069000 3.65420000 3.77435000 3.52511000 3.30994000 3.24928000 3.29443000 3.35158000 3.52610000 3.57016000 3.59209000 3.66886000 3.76761000 3.84718000 3.89763000
5053.08540 17.6832600 3.14431000 3.12782000 3.12450000 3.12116000 3.13214000 3.09925000 3.03732000 2.95958000 2.97243000 2.90506000 2.72820000 2.70464000 2.85396000 3.41368000 3.60039000 3.17584000 2.74035000 2.78119000 2.92338000 3.03641000 3.04528000 3.09929000 3.09585000 3.04113000 3.00192000 2.98272000 2.95973000 2.94404000 2.96176000 2.94263000 2.91832000 2.92006000 2.94059000 2.96424000 2.95789000 2.94622000 2.92841000 2.91367000 2.88042000 2.85634000 2.85031000 2.83037000 2.80336000 2.78001000 2.73303000 2.76465000 2.80012000 2.79535000 2.79445000 2.87513000 3.02880000 3.10781000 3.15154000 3.16265000 3.17401000 3.17408000 3.18910000 3.20771000 3.20280000 3.18521000 3.15005000 3.12764000 3.07085000 2.99330000 2.95712000 2.89002000 2.85647000 2.79932000 2.73446000 2.64656000 2.53476000 2.52097000 2.47746000 2.44846000 2.47366000 2.44530000 2.21780000 2.31124000 2.35606000 2.30743000 2.39173000 2.45064000 2.53294000 2.55504000 2.60320000 2.63213000 2.65409000 2.67630000 2.72553000 2.75917000 2.65865000 2.60998000 2.58536000 2.66458000 2.70036000 2.68212000 2.68116000 2.83219000 2.91292000 7.03951000 12.6954600 9.40112000 2.81249000 2.74454000 2.69682000 2.66705000 2.59626000 2.35115000 2.16031000 2.25261000 2.32265000 2.24753000 2.14275000 2.17810000 2.76357000 2.97826000 3.19477000 3.27480000 3.20474000 3.19000000 3.11602000 3.09381000 3.07331000 2.99947000 2.88481000 2.96981000 3.08140000 2.90627000 2.92256000 2.91393000 2.82603000 2.76992000 2.72407000 2.66631000 2.61150000 2.57173000 2.50047000 2.39509000 2.36634000 2.46966000 2.38951000 2.18358000 2.16212000 2.24462000 2.21551000 2.35391000 2.44414000 2.48848000 2.67282000 2.79667000 2.86019000 2.93881000 2.97733000 2.98557000 2.91099000 2.70808000 2.77455000 2.81525000 2.74177000 2.68643000 2.69812000 2.76720000 2.82563000 2.89633000 2.90529000 2.90346000 2.90931000 2.92702000 2.92148000 2.89652000 10.7189700 78.5601500 37.8754100 3.18090000 3.16886000 3.15767000 3.16293000 3.19051000 4.44209000 77.6083800 80.0000000 80.0000000 80.0000000 80.0000000 80.0000000 80.0000000 80.0000000 80.0000000 80.0000000 80.0000000 80.0000000 80.0000000 80.0000000 80.0000000 80.0000000 80.0000000 80.0000000 80.0000000 80.0000000 80.0000000 80.0000000 80.0000000 60.7249800 2.78425000 3.17287000 3.22907000 3.19371000 3.20365000 3.25057000 3.32682000 3.27316000 3.28354000 3.11208000 2.98544000 3.07303000 2.97719000 3.06256000 3.07596000 3.11013000 3.17137000 3.22057000 3.27412000 3.35502000 3.40542000 3.36439000 3.24038000 27.0422500 80.0000000 80.0000000 55.9927000 3.19582000 3.25215000 3.32879000 3.44141000 3.56032000 3.18464000 3.17681000 3.07675000 3.21508000 3.23523000 3.24449000 3.27136000 3.27367000 3.30425000 3.34571000 3.36656000 3.37336000 3.38834000 3.44776000 3.63279000 3.88184000 3.94206000 3.85631000 3.68374000 3.62295000 3.68132000 3.78341000 3.53290000 3.31032000 3.26070000 3.33473000 3.40379000 3.57471000 3.60700000 3.63675000 3.72074000 3.75541000 3.88898000 3.92332000
312.460200 3.10568000 3.11276000 3.11874000 3.13927000 3.16250000 3.17217000 3.23118000 3.18051000 2.97050000 2.93894000 2.87790000 2.68266000 2.67244000 2.84020000 3.44778000 3.64338000 3.22503000 2.71587000 2.68044000 2.83958000 2.98303000 3.00378000 3.04680000 3.02661000 2.97928000 2.95487000 2.95841000 2.92924000 2.89558000 2.88778000 2.88732000 2.86925000 2.87088000 2.90011000 2.90468000 2.91359000 2.91066000 2.89857000 2.85041000 2.84146000 2.85225000 2.83961000 2.80356000 2.77330000 2.73781000 2.72894000 2.76934000 2.79430000 2.82011000 2.81735000 2.92623000 3.05448000 3.12132000 3.16010000 3.16635000 3.16888000 3.15960000 3.17687000 3.18339000 3.17260000 3.15386000 3.11930000 3.07189000 3.01351000 2.96073000 2.91689000 2.87101000 2.82329000 2.78383000 2.69906000 2.59068000 2.53761000 2.51746000 2.46233000 2.42928000 2.47728000 2.36171000 2.26648000 2.38380000 2.30792000 2.30876000 2.42396000 32.2578400 49.4832200 19.4634800 12.5025800 5.77957000 2.72795000 2.68423000 2.69466000 2.71527000 2.59036000 2.55161000 2.61252000 2.64159000 2.62240000 2.62349000 2.68974000 2.82798000 10.0057000 66.5917600 80.0000000 75.1413600 27.4820600 4.33868000 2.73453000 2.64458000 2.53618000 2.23215000 2.17745000 2.27037000 2.30026000 2.21171000 2.10486000 2.26828000 2.76308000 3.09021000 3.22513000 3.25921000 3.23125000 3.23861000 4.85965000 3.10699000 3.10530000 3.05673000 2.93445000 2.96266000 3.00244000 2.96114000 2.94535000 2.89686000 2.84366000 2.75993000 2.69844000 2.64225000 2.55857000 2.53552000 2.47228000 2.38357000 2.40914000 2.42648000 2.37506000 2.20460000 2.17417000 2.21349000 2.25056000 2.40235000 2.50008000 2.60583000 2.64731000 2.77624000 2.87401000 2.86536000 2.86068000 2.79258000 2.72505000 2.79763000 2.78323000 2.81012000 2.89596000 2.94037000 2.94361000 2.95096000 2.93579000 2.91291000 2.87696000 2.86346000 2.87817000 2.91974000 2.89130000 2.85786000 2.96319000 68.7793600 39.5468300 3.16218000 3.14110000 3.12337000 3.09817000 3.17888000 3.19932000 61.3531700 80.0000000 80.0000000 80.0000000 80.0000000 80.0000000 80.0000000 80.0000000 80.0000000 80.0000000 80.0000000 80.0000000 80.0000000 80.0000000 80.0000000 80.0000000 80.0000000 80.0000000 80.0000000 80.0000000 80.0000000 80.0000000 80.0000000 62.3356200 2.79492000 3.08984000 3.21717000 3.23486000 3.25840000 3.31602000 3.32404000 3.32021000 3.28321000 3.13194000 2.95022000 3.04641000 2.96613000 3.01849000 3.05649000 3.09361000 3.16548000 3.20980000 3.29882000 3.35226000 3.42107000 3.37877000 3.22633000 20.0121600 80.0000000 80.0000000 73.4814200 3.18904000 3.23076000 3.28988000 3.40405000 3.56164000 3.21457000 3.15601000 3.03181000 3.22513000 3.25235000 3.25992000 3.27814000 3.30194000 3.32999000 3.35122000 3.37182000 3.40289000 3.39758000 3.42565000 3.59187000 3.87505000 3.96716000 3.89012000 3.71459000 3.64857000 3.67512000 3.70744000 3.52923000 3.32957000 3.28793000 3.39551000 3.47409000 3.63343000 3.63698000 3.67242000 3.68432000 3.75316000 3.84583000 3.90851000
